0.42944541573524475 0.021686723455786705 0.4214244782924652
0.10456212610006332 0.03954428806900978 0.5422555208206177
0.2118987739086151 0.03715300187468529 0.4710597097873688
0.6123811602592468 0.0037502297200262547 0.22739724814891815
0.529516339302063 0.11180782318115234 0.16614916920661926
0.6383658051490784 0.03655438870191574 0.41443324089050293
0.4055120050907135 0.048087574541568756 0.3081299364566803
0.39779132604599 0.030950922518968582 0.0195019394159317
0.4436710476875305 0.27229711413383484 0.19159099459648132
0.5721947550773621 0.07724171131849289 0.2995067536830902
0.7372958660125732 0.031215067952871323 0.09282658994197845
0.7642995715141296 0.042368195950984955 0.0037500676698982716
0.8428862690925598 0.19138899445533752 0.030499372631311417
0.6187573671340942 0.0835309773683548 0.11705800145864487
0.7185965776443481 0.09043899923563004 0.05525564029812813
0.713644802570343 0.024962062016129494 0.03741222247481346
0.9515701532363892 0.13262413442134857 0.11834569275379181
0.9052520990371704 0.09966569393873215 0.14130279421806335
0.38759419322013855 0.030712556093931198 0.2224995642900467
0.26914066076278687 0.1297062486410141 0.15166205167770386
0.2078198492527008 0.013888916000723839 0.05679227039217949
0.40542110800743103 0.014722689986228943 0.5317713618278503
0.03518953174352646 0.05845816805958748 0.3183985650539398
0.03604324907064438 0.003750184550881386 0.5169773697853088
0.16896875202655792 0.016321392729878426 0.26130610704421997
0.0037501617334783077 0.0037502094637602568 0.020049147307872772
0.17007817327976227 0.0671573281288147 0.4232410788536072
0.018013272434473038 0.030543005093932152 0.44549909234046936
0.778510570526123 0.0037502299528568983 0.5683837532997131
0.291386216878891 0.10762894153594971 0.2834601104259491
0.4588852822780609 0.15142755210399628 0.08023183792829514
0.7745038270950317 0.04143524542450905 0.26285064220428467
0.25888967514038086 0.053989917039871216 0.05368352681398392
0.8039255142211914 0.32386288046836853 0.0040811700746417046
0.23436951637268066 0.07151846587657928 0.31873318552970886
0.643578290939331 0.2658150792121887 0.0037500846665352583
0.427008718252182 0.04366985335946083 0.03886356204748154
0.4981052875518799 0.054852891713380814 0.3004172444343567
0.3952963352203369 0.05655761808156967 0.21661968529224396
0.9388483762741089 0.08507704734802246 0.17895857989788055
0.42590922117233276 0.015174728818237782 0.10350219160318375
0.2583187222480774 0.012914779596030712 0.16583490371704102
0.42610055208206177 0.0585012249648571 0.20145022869110107
0.07220809906721115 0.035047031939029694 0.5763469338417053
0.8373616337776184 0.0617208294570446 0.19325575232505798
0.5378079414367676 0.031016606837511063 0.18508349359035492
0.09527385234832764 0.07541880756616592 0.37085601687431335
0.7845118641853333 0.0037500117905437946 0.043931204825639725
0.22116772830486298 0.43509048223495483 0.1514395773410797
0.22263984382152557 0.08340544253587723 0.21249894797801971
0.10776019096374512 0.025385448709130287 0.059476785361766815
0.6927967667579651 0.0037500648759305477 0.4910790026187897
0.4651811122894287 0.41425904631614685 0.059944264590740204
0.8732793927192688 0.044937290251255035 0.07874290645122528
0.6852476596832275 0.31383609771728516 0.033671680837869644
0.09255905449390411 0.26599472761154175 0.01283381599932909
0.7338091135025024 0.3584848642349243 0.05143453925848007
0.6073642373085022 0.027956968173384666 0.03670147806406021
0.3278701603412628 0.20986437797546387 0.017117172479629517
0.36913755536079407 0.2611539661884308 0.00375010771676898
0.8899661302566528 0.19266940653324127 0.016304107382893562
0.25991392135620117 0.1427822709083557 0.21651092171669006
0.44020700454711914 0.2506791651248932 0.04219822585582733
0.24192479252815247 0.1632901430130005 0.12797725200653076
0.4642946720123291 0.003750034375116229 0.5300570726394653
0.07337839901447296 0.0037501645274460316 0.2121836394071579
0.3895215690135956 0.01528505701571703 0.0037502150516957045
0.2541688084602356 0.03243924304842949 0.19228483736515045
0.5310217142105103 0.003750162199139595 0.47964152693748474
0.003750082105398178 0.07903459668159485 0.15041272342205048
0.3356734812259674 0.04928147420287132 0.1366710364818573
0.45953577756881714 0.17092445492744446 0.08392585068941116
0.0037502229679375887 0.095097117125988 0.22159850597381592
0.5724383592605591 0.05331065133213997 0.05576494336128235
0.2492266595363617 0.00375015358440578 0.17530681192874908
0.8896930813789368 0.02390322834253311 0.41481003165245056
0.8688602447509766 0.1382354497909546 0.024575959891080856
0.8677390813827515 0.0037502225022763014 0.5086482763290405
0.7999452352523804 0.021540287882089615 0.3896560072898865
0.7732033133506775 0.05331515520811081 0.1931145042181015
0.6264010667800903 0.3424014151096344 0.03527306765317917
0.43666285276412964 0.03127218037843704 0.09460556507110596
0.1589980572462082 0.12601213157176971 0.11616070568561554
0.7793512940406799 0.19371913373470306 0.18074414134025574
0.2736458480358124 0.0037500355392694473 0.025074711069464684
0.3534843325614929 0.09613712877035141 0.14030104875564575
0.28095543384552 0.04738016426563263 0.13738811016082764
0.48501986265182495 0.003750127973034978 0.17990949749946594
0.39646026492118835 0.1516260951757431 0.13231316208839417
0.10091644525527954 0.045201174914836884 0.17497679591178894
0.26464563608169556 0.0037500164471566677 0.22480884194374084
0.10417300462722778 0.01739261858165264 0.3492940366268158
0.7092775106430054 0.0037502211052924395 0.022264234721660614
0.2180021107196808 0.27892524003982544 0.21249906718730927
0.596537709236145 0.2164044827222824 0.0037501524202525616
0.9961087107658386 0.31472378969192505 0.004479779861867428
0.8921030759811401 0.003750104457139969 0.1099352240562439
0.9816884994506836 0.07683714479207993 0.0037500455509871244
0.4547801911830902 0.38492435216903687 0.0086973300203681
0.397491455078125 0.3884064257144928 0.07336185872554779
0.9386913180351257 0.07953761518001556 0.03431365638971329
0.9657981991767883 0.35249823331832886 0.01070464588701725
0.40502962470054626 0.02955019846558571 0.0781785100698471
0.13451501727104187 0.11718811839818954 0.2233002930879593
0.08719244599342346 0.057024985551834106 0.36106035113334656
0.1591409146785736 0.017862284556031227 0.21554207801818848
0.35526520013809204 0.015467959456145763 0.12622851133346558
0.24019896984100342 0.015163689851760864 0.1157904639840126
0.2063780128955841 0.08771120011806488 0.13290153443813324
0.5078372955322266 0.0037501826882362366 0.10026711225509644
0.9962495565414429 0.11072802543640137 0.05460228770971298
0.3055993318557739 0.0291893370449543 0.19438058137893677
0.20098677277565002 0.3911648392677307 0.08993898332118988
0.42917853593826294 0.0037501349579542875 0.22239430248737335
0.3041788339614868 0.4875243604183197 0.004107103683054447
0.7693995237350464 0.01705898717045784 0.14191387593746185
0.44598549604415894 0.36965250968933105 0.0918450579047203
0.6400159001350403 0.3017505705356598 0.10779573768377304
0.7865738272666931 0.08301247656345367 0.07089132815599442
0.7610412240028381 0.07881423085927963 0.08297289162874222
0.753987729549408 0.003750103060156107 0.08039930462837219
0.8796939849853516 0.13475461304187775 0.12024655193090439
0.7408509254455566 0.06887005269527435 0.29701611399650574
0.5567420721054077 0.03730656951665878 0.04618532210588455
0.08032204210758209 0.017925875261425972 0.2932891845703125
0.3231925368309021 0.031585969030857086 0.5887229442596436
0.18663273751735687 0.13626176118850708 0.19754743576049805
0.258158415555954 0.20129850506782532 0.03415115922689438
0.4078836441040039 0.10268183797597885 0.08175180852413177
0.275010883808136 0.04174215346574783 0.26347553730010986
0.1397230327129364 0.03225291892886162 0.17660346627235413
0.8486153483390808 0.08831917494535446 0.10395951569080353
0.18379515409469604 0.05521988123655319 0.27616778016090393
0.18114735186100006 0.01522268820554018 0.308929979801178
0.4941501021385193 0.08998041599988937 0.0037500751204788685
0.7044157981872559 0.016378169879317284 0.10722358524799347
0.3981531262397766 0.03147319331765175 0.24111834168434143
0.5974551439285278 0.017565250396728516 0.1351747214794159
0.3794541656970978 0.051125627011060715 0.16237416863441467
0.7082971930503845 0.018259122967720032 0.17960721254348755
0.9584620594978333 0.07567855715751648 0.20504896342754364
0.967228889465332 0.0037502418272197247 0.13789179921150208
0.43716946244239807 0.16880278289318085 0.003750249044969678
0.6368502378463745 0.13674554228782654 0.06560930609703064
0.35348063707351685 0.0564817413687706 0.21651522815227509
0.2093951255083084 0.0233017485588789 0.4114835262298584
0.20836803317070007 0.11047618091106415 0.2509003281593323
0.37188225984573364 0.01727971062064171 0.37299832701683044
0.3819735646247864 0.04239499196410179 0.4310421049594879
0.5806750059127808 0.059959135949611664 0.1243402361869812
0.4178888201713562 0.0037500616163015366 0.0037500851321965456
0.478038489818573 0.18998439610004425 0.06023896485567093
0.23365528881549835 0.09491465985774994 0.17671962082386017
0.6871827840805054 0.003750183153897524 0.5071050524711609
0.5802002549171448 0.003750058589503169 0.43415457010269165
0.10159631073474884 0.014889487996697426 0.23428432643413544
0.5370582342147827 0.021024813875555992 0.40764886140823364
0.30918723344802856 0.19766119122505188 0.05698687583208084
0.19902469217777252 0.045651499181985855 0.24603548645973206
0.1192527562379837 0.10856888443231583 0.02433282509446144
0.9081956148147583 0.003750217380002141 0.09892238676548004
0.956856369972229 0.003750162199139595 0.5716060400009155
0.847333550453186 0.18841072916984558 0.049868497997522354
0.5982011556625366 0.13786089420318604 0.19257670640945435
0.9037071466445923 0.0037502204068005085 0.31103047728538513
0.37987667322158813 0.06108890101313591 0.003750162199139595
0.14431482553482056 0.040666837245225906 0.0037500474136322737
0.2872985005378723 0.017719607800245285 0.3177940249443054
0.2566077411174774 0.049747221171855927 0.4309634566307068
0.3808833062648773 0.13555555045604706 0.2219136506319046
0.2708221673965454 0.03161424398422241 0.3020114302635193
0.2333327978849411 0.0037501989863812923 0.07789826393127441
0.11568417400121689 0.06460285931825638 0.39515599608421326
0.06743095815181732 0.08672864735126495 0.17887313663959503
0.3428410589694977 0.04444720596075058 0.10052309185266495
0.6996616125106812 0.003750014351680875 0.3146810829639435
0.665804922580719 0.13854655623435974 0.12540379166603088
0.786676824092865 0.07714573293924332 0.11461536586284637
0.982054591178894 0.017026111483573914 0.1500202715396881
0.018025673925876617 0.20341548323631287 0.020275741815567017
0.5114315748214722 0.08912835270166397 0.020803580060601234
0.9431430697441101 0.07368887215852737 0.21908998489379883
0.9962495565414429 0.0856190100312233 0.04794193431735039
0.3083323836326599 0.01552437711507082 0.13154925405979156
0.1854972392320633 0.24031618237495422 0.017930975183844566
0.21770019829273224 0.0037500537000596523 0.16067317128181458
0.22706839442253113 0.01685401052236557 0.43897056579589844
0.02107146382331848 0.031108221039175987 0.3965751528739929
0.38511553406715393 0.035535991191864014 0.4130118787288666
0.01774188131093979 0.06151013448834419 0.27563759684562683
0.270521879196167 0.003750051138922572 0.3994932472705841
0.23034337162971497 0.29037734866142273 0.02895646169781685
0.308902382850647 0.0322425402700901 0.264651358127594
0.35788390040397644 0.1828518807888031 0.1070476770401001
0.15587487816810608 0.01808580756187439 0.24799421429634094
0.019510308280587196 0.03209749981760979 0.03287764638662338
0.01915803737938404 0.014762001112103462 0.06461523473262787
0.5980435609817505 0.07396560907363892 0.2169475555419922
0.6561603546142578 0.09036184847354889 0.11083841323852539
0.7189334630966187 0.01995149254798889 0.27505356073379517
0.9740585088729858 0.08960730582475662 0.0378769114613533
0.6668434739112854 0.04681571573019028 0.13321077823638916
0.48419076204299927 0.1445769965648651 0.0812418982386589
0.9649282693862915 0.028996795415878296 0.0737299919128418
0.5576253533363342 0.0037501510232686996 0.003750197123736143
0.2988538146018982 0.24538597464561462 0.10519329458475113
0.31744682788848877 0.07959209382534027 0.14085644483566284
0.10788793861865997 0.03209332749247551 0.38549166917800903
0.4242967665195465 0.015673723071813583 0.4031863212585449
0.2764243185520172 0.0037500238977372646 0.4850265383720398
0.40144163370132446 0.30125030875205994 0.003771138144657016
0.3473672866821289 0.1301850974559784 0.16256947815418243
0.29293933510780334 0.16665054857730865 0.12246371805667877
0.1719515025615692 0.034004781395196915 0.3560725748538971
0.26840725541114807 0.23918163776397705 0.003762792097404599
0.20986536145210266 0.229343444108963 0.0037501752376556396
0.8178092241287231 0.003750072792172432 0.20122984051704407
0.3813953399658203 0.13659024238586426 0.0037500630132853985
0.1560118943452835 0.05688656121492386 0.020492073148489
0.8122409582138062 0.01859949715435505 0.19664756953716278
0.9532386660575867 0.019007762894034386 0.1875084489583969
0.9341220855712891 0.08771316707134247 0.07984641939401627
0.48016971349716187 0.015624175779521465 0.14959804713726044
0.9813694953918457 0.003750067902728915 0.13103610277175903
0.9261406064033508 0.1475967913866043 0.09690830856561661
0.9110885858535767 0.12121393531560898 0.03624517843127251
0.9268229603767395 0.22263136506080627 0.05164368078112602
0.43009573221206665 0.07226702570915222 0.020010672509670258
0.40910372138023376 0.030682658776640892 0.18045957386493683
0.0719294622540474 0.0037502464838325977 0.037018485367298126
0.15328247845172882 0.030136337503790855 0.01953250914812088
0.2489987313747406 0.10166618973016739 0.11705626547336578
0.41971832513809204 0.03347782418131828 0.24157965183258057
0.2916848063468933 0.015783701092004776 0.27964121103286743
0.2807766795158386 0.24190695583820343 0.02390309050679207
0.09728506952524185 0.05732392519712448 0.07141037285327911
0.1672152578830719 0.03952176123857498 0.11167359352111816
0.5125558376312256 0.15036872029304504 0.15309210121631622
0.4661169648170471 0.12462086975574493 0.03787008300423622
0.833584189414978 0.0037500769831240177 0.1088218092918396
0.2613864839076996 0.13371846079826355 0.13391906023025513
0.6050179600715637 0.07066232711076736 0.057266246527433395
0.7668770551681519 0.22236022353172302 0.028534913435578346
0.8448602557182312 0.28540313243865967 0.08430193364620209
0.8921467065811157 0.03071918711066246 0.10251706838607788
0.7329308390617371 0.11615194380283356 0.08788985759019852
0.34885674715042114 0.45314210653305054 0.00477520702406764
0.5779231786727905 0.202192023396492 0.07215289771556854
0.9024597406387329 0.1816214621067047 0.007648888975381851
0.33191925287246704 0.017527354881167412 0.3710964322090149
0.07805491983890533 0.16870933771133423 0.04368581995368004
0.25010526180267334 0.17617101967334747 0.07314769178628922
0.20998330414295197 0.11988942325115204 0.18904578685760498
0.42408424615859985 0.1420200616121292 0.12212339788675308
0.7473258376121521 0.0037502467166632414 0.4678436815738678
0.5592352151870728 0.1281510591506958 0.15678104758262634
0.3736267685890198 0.0037501815240830183 0.3596823513507843
0.06675691902637482 0.07396186143159866 0.022754553705453873
0.11964182555675507 0.12541283667087555 0.03681246191263199
0.5619648694992065 0.051919419318437576 0.22394239902496338
0.3243422210216522 0.07436910271644592 0.33997198939323425
0.5096637010574341 0.0151309072971344 0.19682620465755463
0.7909069657325745 0.11610299348831177 0.10358685255050659
0.7302173376083374 0.13528770208358765 0.14927968382835388
0.7400988340377808 0.17175117135047913 0.0037500658072531223
0.7540329694747925 0.03837406635284424 0.2257368266582489
0.6824914813041687 0.07754465937614441 0.06731299310922623
0.4402031898498535 0.01587752439081669 0.19360992312431335
0.8737066984176636 0.08599700778722763 0.23262719810009003
0.4370710253715515 0.11226967722177505 0.12707588076591492
0.054891638457775116 0.048206623643636703 0.49226635694503784
0.3141939342021942 0.08430907875299454 0.2897815704345703
0.07625214755535126 0.0037502076011151075 0.05420486256480217
0.29084017872810364 0.03892587497830391 0.44568347930908203
0.20376595854759216 0.28120020031929016 0.2013753354549408
0.4919126033782959 0.16685107350349426 0.05564730241894722
0.5134321451187134 0.27033525705337524 0.02310437150299549
0.5666781663894653 0.22955551743507385 0.003769458504393697
0.6354465484619141 0.06704475730657578 0.04556698352098465
0.2383423149585724 0.08220305293798447 0.1894862800836563
0.4795028567314148 0.20970499515533447 0.11155115067958832
0.11096923053264618 0.3793789744377136 0.07283958047628403
0.21091397106647491 0.15080136060714722 0.062140751630067825
0.11522837728261948 0.08821997046470642 0.17423489689826965
0.4432357847690582 0.32267147302627563 0.03318546339869499
0.4133358895778656 0.25216755270957947 0.04165776073932648
0.7605138421058655 0.14378926157951355 0.09206878393888474
0.8242748975753784 0.018657416105270386 0.16427017748355865
0.8841992616653442 0.020869188010692596 0.2844063639640808
0.37415772676467896 0.08715137094259262 0.027203598991036415
0.277028352022171 0.07391692698001862 0.11319385468959808
0.8375876545906067 0.3085671067237854 0.004121707286685705
0.2458614557981491 0.0843239426612854 0.31059470772743225
0.3397400677204132 0.030195120722055435 0.5444601774215698
0.13150086998939514 0.4100874960422516 0.06713296473026276
0.10173263400793076 0.07994137704372406 0.16938677430152893
0.40995949506759644 0.06764651834964752 0.29895153641700745
0.3695049583911896 0.12773573398590088 0.23842065036296844
0.1421625167131424 0.09614995867013931 0.016697537153959274
0.08782964199781418 0.08817179501056671 0.1024920716881752
0.40771618485450745 0.11609760671854019 0.27788838744163513
0.5854479074478149 0.0037501256447285414 0.23222002387046814
0.6374947428703308 0.025720223784446716 0.3333142101764679
0.5186694264411926 0.21103882789611816 0.003775217803195119
0.24447524547576904 0.05767355114221573 0.1523762047290802
0.26147350668907166 0.003750244155526161 0.07078476250171661
0.6765543222427368 0.12467237561941147 0.04990207776427269
0.9551786184310913 0.013913462869822979 0.003750130534172058
0.979476809501648 0.12801295518875122 0.07497458159923553
0.8478231430053711 0.1384870707988739 0.05274946242570877
0.659390389919281 0.3150171637535095 0.11672466993331909
0.9305473566055298 0.1278558075428009 0.03151581436395645
0.7598957419395447 0.10633508116006851 0.1755233258008957
0.3780747354030609 0.0839570015668869 0.16813400387763977
0.6019176244735718 0.003750072093680501 0.35001567006111145
0.11971946060657501 0.07993639260530472 0.2216598242521286
0.5714098811149597 0.26481738686561584 0.028949644416570663
0.06565377116203308 0.10267026722431183 0.11314330250024796
0.10499808937311172 0.1155974492430687 0.06496239453554153
0.4059373736381531 0.019283797591924667 0.3524573743343353
0.17768613994121552 0.24140477180480957 0.0332021489739418
0.13126899302005768 0.07590509951114655 0.059875547885894775
0.22963547706604004 0.12246096134185791 0.17741656303405762
0.48381322622299194 0.12861143052577972 0.06840859353542328
0.2516556680202484 0.10952897369861603 0.03074643947184086
0.8047488927841187 0.06889860332012177 0.19176897406578064
0.6717647314071655 0.20843370258808136 0.029399702325463295
0.7559164762496948 0.2632835805416107 0.059179652482271194
0.884820282459259 0.08701244741678238 0.19198304414749146
0.9827251434326172 0.2564634680747986 0.05046883970499039
0.9794308543205261 0.0037513840943574905 0.5887230634689331
0.47164076566696167 0.06205380707979202 0.2039574384689331
0.6633010506629944 0.15649372339248657 0.02302118018269539
0.5868666172027588 0.3195631206035614 0.031799741089344025
0.02055542543530464 0.06340516358613968 0.34964388608932495
0.03411782160401344 0.023535938933491707 0.003750025061890483
0.26760247349739075 0.014692549593746662 0.0037500609178096056
0.08247563242912292 0.3301483690738678 0.04528749734163284
0.06310921907424927 0.10466102510690689 0.020957373082637787
0.18986719846725464 0.05176878720521927 0.3776344656944275
0.3983425498008728 0.27790576219558716 0.0037500530015677214
0.10456905514001846 0.27380913496017456 0.005413855891674757
0.39936602115631104 0.04054483398795128 0.06754755973815918
0.7128461599349976 0.02551000379025936 0.40875253081321716
0.7636895179748535 0.0037501617334783077 0.5666791796684265
0.9737831354141235 0.10437623411417007 0.09988068044185638
0.5319368243217468 0.12702816724777222 0.18877162039279938
0.5959001779556274 0.19638505578041077 0.0938916802406311
0.8500250577926636 0.04933958500623703 0.18762607872486115
0.8732258677482605 0.0195535309612751 0.25199565291404724
0.40165582299232483 0.41213735938072205 0.04666053131222725
0.9537280797958374 0.02968882955610752 0.003750142175704241
0.9591352343559265 0.11737589538097382 0.10404536873102188
0.47855839133262634 0.34519439935684204 0.003750138683244586
0.8406441807746887 0.0037500641774386168 0.43037253618240356
0.45736822485923767 0.05792846530675888 0.2146005928516388
0.017801346257328987 0.11961977183818817 0.40295958518981934
0.05119392275810242 0.08634686470031738 0.12375056743621826
0.2413354367017746 0.37017887830734253 0.014507293701171875
0.5718900561332703 0.03447026014328003 0.5391239523887634
0.33938753604888916 0.015422755852341652 0.20701420307159424
0.006472024135291576 0.3646267056465149 0.044087234884500504
0.27455171942710876 0.0403900220990181 0.05036609619855881
0.4516173303127289 0.3661063313484192 0.09710419178009033
0.760346531867981 0.01934553124010563 0.5182798504829407
0.36367926001548767 0.11909212172031403 0.033231861889362335
0.9245613813400269 0.08326137065887451 0.19029425084590912
0.44105657935142517 0.13127732276916504 0.11575756222009659
0.21787671744823456 0.07328765094280243 0.06329046934843063
0.7623922824859619 0.08538390696048737 0.0037501100450754166
0.9382909536361694 0.10591598600149155 0.18716494739055634
0.5725318789482117 0.06458666175603867 0.07247582823038101
0.3757253885269165 0.05691974237561226 0.03990567848086357
0.9075775146484375 0.28451693058013916 0.006167745683342218
0.49377137422561646 0.20253300666809082 0.12131205946207047
0.6920948624610901 0.0221076812595129 0.41294360160827637
0.3647315502166748 0.07798883318901062 0.05886329337954521
0.003750032279640436 0.017514647915959358 0.08876641094684601
0.2588872015476227 0.16398319602012634 0.020545469596982002
0.5396431684494019 0.0037501801270991564 0.5166813731193542
0.18843694031238556 0.0037502169143408537 0.4974682927131653
0.1523553878068924 0.1014038473367691 0.32087188959121704
0.31612083315849304 0.0600406713783741 0.3722797930240631
0.021550528705120087 0.07401134073734283 0.29148414731025696
0.2316480427980423 0.15696872770786285 0.1439412385225296
0.7784782648086548 0.0037500846665352583 0.4274008870124817
0.3284050226211548 0.07803544402122498 0.38087743520736694
0.02257297746837139 0.014764721505343914 0.19679991900920868
0.670348048210144 0.2774832248687744 0.1342567354440689
0.61912602186203 0.2497468739748001 0.05980373173952103
0.9189378619194031 0.020057734102010727 0.20094101130962372
0.5017061233520508 0.044609423726797104 0.35443300008773804
0.8752967715263367 0.1238093376159668 0.07446850091218948
0.8216983079910278 0.2470392882823944 0.03697912022471428
0.5003217458724976 0.4008307456970215 0.0037724182475358248
0.38711029291152954 0.39650455117225647 0.15546676516532898
0.7406802177429199 0.023673778399825096 0.39083486795425415
0.19996166229248047 0.0037501552142202854 0.5083879828453064
0.32223162055015564 0.13701628148555756 0.10300538688898087
0.18146340548992157 0.01753835752606392 0.43698635697364807
0.07600688934326172 0.41484326124191284 0.01686830073595047
0.22754058241844177 0.013829265721142292 0.06683191657066345
0.003750218078494072 0.02654356323182583 0.21499355137348175
0.4388135075569153 0.13935673236846924 0.20231077075004578
0.4280138611793518 0.020682726055383682 0.4930276870727539
0.1172553300857544 0.06834064424037933 0.18423952162265778
0.41547948122024536 0.0037500374019145966 0.23358650505542755
0.7605270147323608 0.052092187106609344 0.3004480004310608
0.8418112993240356 0.0037502218037843704 0.5224418640136719
0.6780118942260742 0.03709742799401283 0.26313528418540955
0.0037502311170101166 0.015279866755008698 0.30034512281417847
0.16731572151184082 0.00375003507360816 0.09748054295778275
0.765970766544342 0.17355653643608093 0.04269896075129509
0.6014577150344849 0.12198362499475479 0.022640656679868698
0.6877704858779907 0.12408141791820526 0.17592720687389374
0.639541506767273 0.029984693974256516 0.11748681962490082
0.7902737259864807 0.18592368066310883 0.0037500406615436077
0.698674201965332 0.09604115039110184 0.12777121365070343
0.20122089982032776 0.365721195936203 0.005907995160669088
0.0037500192411243916 0.029126133769750595 0.04628113657236099
0.07859496772289276 0.08242006599903107 0.22221553325653076
0.5284179449081421 0.0037501398473978043 0.3734572231769562
0.17114876210689545 0.11104194819927216 0.2473137378692627
0.6498698592185974 0.0037502232007682323 0.2990543246269226
0.22361107170581818 0.0037500776816159487 0.31349584460258484
0.23355090618133545 0.0887712687253952 0.0037500285543501377
0.3302592933177948 0.003750178497284651 0.5488271713256836
0.545486569404602 0.04771184176206589 0.0037501794286072254
0.3617423474788666 0.35894185304641724 0.003810103517025709
0.5267021656036377 0.11689672619104385 0.2696969509124756
0.8359495401382446 0.0037500124890357256 0.3640139698982239
0.5889586210250854 0.019299961626529694 0.34074467420578003
0.9124242663383484 0.0037500974722206593 0.5700775384902954
0.8520385026931763 0.021775053814053535 0.29854804277420044
0.4707697331905365 0.31794941425323486 0.025296593084931374
0.969618022441864 0.0037502418272197247 0.5628515481948853
0.8837407827377319 0.04628946632146835 0.11205454170703888
0.1827804446220398 0.1562347263097763 0.04582866281270981
0.5850993990898132 0.3013423681259155 0.04428922384977341
0.0649477019906044 0.06101023405790329 0.31826943159103394
0.09135731309652328 0.0807667002081871 0.0037500932812690735
0.29671794176101685 0.12380790710449219 0.0037500173784792423
0.31048470735549927 0.019332129508256912 0.4810677468776703
0.7966278195381165 0.08580110967159271 0.0037501987535506487
0.003750026226043701 0.0037501859478652477 0.17040623724460602
0.5073656439781189 0.08593428879976273 0.2738124132156372
0.5332126021385193 0.1573031097650528 0.06154509633779526
0.048885900527238846 0.16330799460411072 0.02294541522860527
0.33081313967704773 0.013528282754123211 0.1356244832277298
0.11280474811792374 0.4437488913536072 0.09092939645051956
0.6855304837226868 0.05302644520998001 0.16944554448127747
0.5284074544906616 0.09222405403852463 0.11428829282522202
0.3864845931529999 0.17060530185699463 0.07649959623813629
0.7353787422180176 0.056953150779008865 0.3276755213737488
0.42301425337791443 0.08315891772508621 0.0037501368205994368
0.5142435431480408 0.13027913868427277 0.1955489069223404
0.9417604207992554 0.003750112373381853 0.0037501982878893614
0.9960234761238098 0.10159645229578018 0.17868119478225708
0.8191749453544617 0.26617395877838135 0.004742177203297615
0.7461985349655151 0.057724762707948685 0.2410711944103241
0.17200854420661926 0.4430171847343445 0.010691415518522263
0.08849973976612091 0.0037500630132853985 0.10053159296512604
0.06808389723300934 0.10618486255407333 0.1718773990869522
0.21278691291809082 0.05990912392735481 0.3744211494922638
0.2744172215461731 0.015112224034965038 0.4642646908760071
0.08116661012172699 0.051128048449754715 0.0037501673214137554
0.22671043872833252 0.2004729062318802 0.06399188190698624
0.4588959217071533 0.03120429441332817 0.4737774431705475
0.30226320028305054 0.046447914093732834 0.28828880190849304
0.38339731097221375 0.16715599596500397 0.003750245552510023
0.574742317199707 0.02101064845919609 0.37753117084503174
0.31805986166000366 0.46507102251052856 0.021394455805420876
0.8102375268936157 0.03470708057284355 0.24872247874736786
0.7079237699508667 0.07989948242902756 0.20919907093048096
0.8375364542007446 0.02317887172102928 0.27220574021339417
0.3871708810329437 0.06283454596996307 0.126625195145607
0.5342827439308167 0.3684031367301941 0.0040564932860434055
0.5346850156784058 0.015605109743773937 0.10968901216983795
0.6790502071380615 0.0816706046462059 0.0037501577753573656
0.8645774722099304 0.10268233716487885 0.18900591135025024
0.685185968875885 0.34939563274383545 0.04131476953625679
0.3602547347545624 0.032843854278326035 0.03851846233010292
0.7430957555770874 0.014763489365577698 0.0037500138860195875
0.3915479779243469 0.08408913016319275 0.15489497780799866
0.1644725501537323 0.0037502404302358627 0.03586193546652794
0.07463695108890533 0.12233908474445343 0.12737908959388733
0.4253617227077484 0.03950228542089462 0.3680894374847412
0.5088354349136353 0.17434284090995789 0.06582479923963547
0.7030298709869385 0.017298396676778793 0.05428400635719299
0.40202561020851135 0.02968408167362213 0.09802684932947159
0.26370272040367126 0.07360070943832397 0.13061664998531342
0.6011040806770325 0.11446326971054077 0.20982345938682556
0.3730924725532532 0.494210422039032 0.04332125931978226
0.5589200258255005 0.0037500248290598392 0.07940994203090668
0.283744752407074 0.16272474825382233 0.07756006717681885
0.6483391523361206 0.21545596420764923 0.06135263293981552
0.34353506565093994 0.11946944892406464 0.25263482332229614
0.790566623210907 0.0769486352801323 0.26979002356529236
0.9613751173019409 0.025287235155701637 0.38749974966049194
0.500688910484314 0.1262226104736328 0.1805982142686844
0.6460286378860474 0.0037502278573811054 0.06457876414060593
0.43862614035606384 0.3868645429611206 0.10769740492105484
0.25263652205467224 0.07502150535583496 0.08142966032028198
0.4533490538597107 0.3167150318622589 0.1031753271818161
0.5547128915786743 0.0446399562060833 0.18441234529018402
0.3964844346046448 0.05157898738980293 0.46850451827049255
0.6014870405197144 0.16806122660636902 0.02293323539197445
0.16531801223754883 0.03317767754197121 0.22905416786670685
0.38645607233047485 0.10955014079809189 0.0037501670885831118
0.39573726058006287 0.0037502117920666933 0.15030604600906372
0.2677130103111267 0.0037500341422855854 0.17455953359603882
0.4916210174560547 0.09156348556280136 0.11703131347894669
0.8882419466972351 0.12076731026172638 0.1466248333454132
0.8761647343635559 0.02098810486495495 0.4983291029930115
0.9637657999992371 0.037242960184812546 0.23385325074195862
0.5998135209083557 0.1294650286436081 0.17249557375907898
0.8086031675338745 0.34940290451049805 0.024837516248226166
0.4855821132659912 0.026794295758008957 0.09242106974124908
0.6197899580001831 0.142851784825325 0.003750193165615201
0.8612570762634277 0.09434222429990768 0.20027446746826172
0.42235058546066284 0.1206054538488388 0.2561112642288208
0.4222836494445801 0.13803979754447937 0.18772688508033752
0.5137024521827698 0.341501384973526 0.03595958277583122
0.4619193971157074 0.00375004974193871 0.5075685381889343
0.049963198602199554 0.22367513179779053 0.185104638338089
0.2981761395931244 0.04750299081206322 0.021437672898173332
0.06562800705432892 0.04808124154806137 0.23487889766693115
0.41124963760375977 0.23449528217315674 0.06898598372936249
0.7185553312301636 0.027815302833914757 0.0037500422913581133
0.043093111366033554 0.10985103994607925 0.2641306221485138
0.48811373114585876 0.07643973082304001 0.3194577097892761
0.862250804901123 0.01897483691573143 0.17519015073776245
0.7056015133857727 0.10681965202093124 0.08926500380039215
0.30397483706474304 0.3626994490623474 0.13526538014411926
0.1933325231075287 0.09758288413286209 0.0037500611506402493
0.15961091220378876 0.0037500481121242046 0.2569386959075928
0.33126184344291687 0.1206808090209961 0.15637308359146118
0.5214751958847046 0.3801189064979553 0.017012914642691612
0.6741464734077454 0.31939518451690674 0.08965688943862915
0.9855753183364868 0.4050445556640625 0.013562175445258617
0.07029958069324493 0.03125975281000137 0.1402389258146286
0.7719470858573914 0.268498957157135 0.024092290550470352
0.49840912222862244 0.0037502411287277937 0.1684899628162384
0.10126838833093643 0.015925951302051544 0.20028233528137207
0.22723710536956787 0.010042300447821617 0.045343078672885895
0.43688106536865234 0.20223650336265564 0.003750066738575697
0.003750154748558998 0.04321941360831261 0.10963098704814911
0.5594733357429504 0.01911875046789646 0.23295743763446808
0.15361611545085907 0.04480171948671341 0.14446569979190826
0.07398967444896698 0.03116498328745365 0.34948495030403137
0.06735603511333466 0.017405521124601364 0.49904289841651917
0.836349606513977 0.003750106319785118 0.3266715705394745
0.11520395427942276 0.0037500218022614717 0.24096837639808655
0.26015061140060425 0.003750103060156107 0.18988606333732605
0.3402394950389862 0.007680002599954605 0.03695754334330559
0.7112569212913513 0.08388814330101013 0.12006334215402603
0.7379988431930542 0.06593125313520432 0.03874405473470688
0.7196265459060669 0.04204637184739113 0.1531694084405899
0.8449656367301941 0.04702533036470413 0.11484726518392563
0.6967175602912903 0.2133152037858963 0.0037500900216400623
0.5221914052963257 0.031928207725286484 0.10380057990550995
0.5535942316055298 0.333038866519928 0.13650211691856384
0.8006430864334106 0.13207218050956726 0.0729973241686821
0.8092986941337585 0.16874493658542633 0.05080096796154976
0.038146261125802994 0.018273750320076942 0.03521813824772835
0.19587157666683197 0.0458061508834362 0.34553027153015137
0.4096750319004059 0.14346551895141602 0.15210393071174622
0.1798199713230133 0.18011543154716492 0.01980077661573887
0.06566567718982697 0.390615314245224 0.09833662956953049
0.5929847955703735 0.07273045182228088 0.01948133111000061
0.2378101646900177 0.04274744167923927 0.0037501100450754166
0.286607027053833 0.09394298493862152 0.24810221791267395
0.2942322790622711 0.02964865043759346 0.08831636607646942
0.4585455060005188 0.43798884749412537 0.11706405878067017
0.1987907588481903 0.015486587770283222 0.3754492998123169
0.4266427457332611 0.11654863506555557 0.31874746084213257
0.6210805177688599 0.15767323970794678 0.003750016214326024
0.7705947160720825 0.017886612564325333 0.23735575377941132
0.29620662331581116 0.029734686017036438 0.16235274076461792
0.5218318700790405 0.24809591472148895 0.03567768633365631
0.5393398404121399 0.012657429091632366 0.05590984970331192
0.8743991851806641 0.031010722741484642 0.09190019965171814
0.8752862811088562 0.12185561656951904 0.021113986149430275
0.6091405153274536 0.15463899075984955 0.060064833611249924
0.1362507939338684 0.0037502318155020475 0.19999803602695465
0.4610353410243988 0.09647977352142334 0.15335622429847717
0.19463810324668884 0.37807005643844604 0.021180683746933937
0.15153804421424866 0.10307373851537704 0.281439870595932
0.18477538228034973 0.0578613206744194 0.2059733122587204
0.22054779529571533 0.141199991106987 0.17188730835914612
0.07723629474639893 0.07391055673360825 0.3291260600090027
0.3105179965496063 0.09105771034955978 0.0037502043414860964
0.24992330372333527 0.14072009921073914 0.020821059122681618
0.349515825510025 0.0037501021288335323 0.09424389153718948
0.38740846514701843 0.0686054676771164 0.3960162103176117
0.6108481884002686 0.03939349949359894 0.34156954288482666
0.16260260343551636 0.06654824316501617 0.07697504758834839
0.8107532262802124 0.1634388118982315 0.07932614535093307
0.9432128071784973 0.28443828225135803 0.013345779851078987
0.35648033022880554 0.0891808569431305 0.3388960361480713
0.3641301691532135 0.046188242733478546 0.045623473823070526
0.9375459551811218 0.04180316999554634 0.07534089684486389
0.8827122449874878 0.016503889113664627 0.12144166231155396
0.5191203355789185 0.00375007139518857 0.22952981293201447
0.9279405474662781 0.11172453314065933 0.020690802484750748
0.9962496757507324 0.08833103626966476 0.0037500374019145966
0.18130141496658325 0.04522957652807236 0.3136870265007019
0.24709275364875793 0.0450894869863987 0.4126214385032654
0.2037295550107956 0.06852276623249054 0.4276854991912842
0.5712436437606812 0.003750161500647664 0.23859474062919617
0.24114231765270233 0.04515257105231285 0.4468774199485779
0.22439441084861755 0.019539330154657364 0.08602742850780487
0.34768423438072205 0.08923402428627014 0.2501083314418793
0.18876835703849792 0.0037500590551644564 0.39387744665145874
0.6186823844909668 0.1282525509595871 0.16752134263515472
0.5704401731491089 0.003750127973034978 0.18113037943840027
0.1983606517314911 0.06286174058914185 0.07440822571516037
0.6485507488250732 0.022294621914625168 0.399929940700531
0.4076591432094574 0.25776606798171997 0.0037500448524951935
0.9131733775138855 0.032161422073841095 0.13330979645252228
0.9000232815742493 0.03262902423739433 0.15063878893852234
0.46590614318847656 0.10814285278320312 0.06939347088336945
0.982791543006897 0.0037501477636396885 0.5707255601882935
0.215993732213974 0.06986464560031891 0.30418580770492554
0.2625003457069397 0.03770599886775017 0.2086564004421234
0.7808722853660583 0.2400200068950653 0.03864699602127075
0.317731648683548 0.07954385131597519 0.11921872198581696
0.6240285634994507 0.0037500758189707994 0.0614299476146698
0.7380254864692688 0.003750088857486844 0.29312270879745483
0.6357594132423401 0.09703540056943893 0.25133413076400757
0.18612897396087646 0.3907244801521301 0.0547434501349926
0.22255904972553253 0.05160827562212944 0.4383983612060547
0.17265450954437256 0.012616107240319252 0.14998677372932434
0.06272166222333908 0.05818390101194382 0.24987685680389404
0.24669881165027618 0.11338551342487335 0.2755551040172577
0.4512607455253601 0.0037501652259379625 0.2601807713508606
0.31194037199020386 0.01505955122411251 0.3565834164619446
0.7763689756393433 0.0037500921171158552 0.14826981723308563
0.6907067894935608 0.0037500294856727123 0.09373724460601807
0.7579848170280457 0.017169471830129623 0.21222145855426788
0.6542230844497681 0.07977288961410522 0.21694183349609375
0.4353436827659607 0.3120896518230438 0.11689852178096771
0.26425790786743164 0.01644952967762947 0.23563775420188904
0.5014979243278503 0.14099350571632385 0.02083044871687889
0.7928390502929688 0.13931801915168762 0.00376083143055439
0.6282565593719482 0.038615450263023376 0.2908107042312622
0.946402370929718 0.2496902495622635 0.004076408222317696
0.9962496757507324 0.0037501882761716843 0.23973700404167175
0.6869374513626099 0.0037500555627048016 0.19165250658988953
0.045678164809942245 0.08417664468288422 0.25316983461380005
0.9267663955688477 0.07185142487287521 0.249935582280159
0.5209411978721619 0.1605878472328186 0.11943231523036957
0.30052345991134644 0.05739361792802811 0.32544341683387756
0.18366782367229462 0.057852018624544144 0.29741960763931274
0.29326361417770386 0.10965026915073395 0.23703818023204803
0.6478875875473022 0.0217036884278059 0.3197893500328064
0.49487096071243286 0.21314387023448944 0.042792581021785736
0.31140294671058655 0.3944208025932312 0.06296402215957642
0.3673423230648041 0.2849457859992981 0.23176297545433044
0.3249729573726654 0.42813682556152344 0.07444129884243011
0.4270090162754059 0.046650126576423645 0.14054791629314423
0.6662538647651672 0.1841340959072113 0.026646390557289124
0.5350635051727295 0.015238871797919273 0.034926820546388626
0.9511793255805969 0.10833041369915009 0.087735615670681
0.1536312848329544 0.10447990894317627 0.13474321365356445
0.9962495565414429 0.003750051837414503 0.11926517635583878
0.9406465291976929 0.00375007139518857 0.09848044812679291
0.5700520873069763 0.038743581622838974 0.4405544698238373
0.9706446528434753 0.12282218039035797 0.136720210313797
0.547452449798584 0.12345071136951447 0.11748963594436646
0.2670239806175232 0.015377489849925041 0.5619973540306091
0.007001880556344986 0.5265563130378723 0.028135934844613075
0.17593035101890564 0.0948842242360115 0.0037501093465834856
0.16881009936332703 0.1790625900030136 0.056571681052446365
0.11796163022518158 0.047985248267650604 0.16022758185863495
0.20344695448875427 0.3326385021209717 0.01720765419304371
0.08369798213243484 0.10738664865493774 0.1022910326719284
0.4052414298057556 0.14531570672988892 0.18598969280719757
0.36436182260513306 0.0037501088809221983 0.02483360655605793
0.4783351421356201 0.0037501659244298935 0.2749103605747223
0.23745985329151154 0.053812433034181595 0.20995935797691345
0.3943575918674469 0.039391644299030304 0.20911116898059845
0.6815232634544373 0.08323442190885544 0.13681571185588837
0.6405608654022217 0.32491031289100647 0.055704277008771896
0.5499628782272339 0.003750214818865061 0.022037211805582047
0.7742566466331482 0.03206746652722359 0.22662337124347687
0.8880643844604492 0.10657958686351776 0.15767130255699158
0.590032160282135 0.26779747009277344 0.035380423069000244
0.7019585967063904 0.0971018597483635 0.05490292236208916
0.12522026896476746 0.14378859102725983 0.07367439568042755
0.3396400809288025 0.018693823367357254 0.4543810486793518
0.0042427657172083855 0.27458202838897705 0.019689006730914116
0.15939836204051971 0.3217308819293976 0.0037501242477446795
0.07695658504962921 0.06096092611551285 0.08837934583425522
0.35012757778167725 0.03507194668054581 0.2754856050014496
0.429658979177475 0.01700291596353054 0.27144762873649597
0.32032865285873413 0.10690399259328842 0.1270398199558258
0.0999838262796402 0.07327184081077576 0.1525912880897522
0.15925782918930054 0.4336256980895996 0.020462539047002792
0.5167520642280579 0.03518647328019142 0.26797860860824585
0.22330351173877716 0.1264009028673172 0.13418923318386078
0.3043283522129059 0.04566366225481033 0.11602799594402313
0.3139781355857849 0.05955050513148308 0.039230186492204666
0.45729145407676697 0.03478072211146355 0.07025708258152008
0.5094035863876343 0.19760899245738983 0.1686186045408249
0.85993891954422 0.09102139621973038 0.09028267860412598
0.5430475473403931 0.01630866900086403 0.19786599278450012
0.9585350155830383 0.06217149645090103 0.2117863893508911
0.5243183374404907 0.23819687962532043 0.021204832941293716
0.812409520149231 0.10590754449367523 0.07049371302127838
0.9632732272148132 0.04669305309653282 0.0037501645274460316
0.44011250138282776 0.3097101151943207 0.03530265763401985
0.2806771993637085 0.11256249994039536 0.251770555973053
0.2567065358161926 0.013303404673933983 0.2928597927093506
0.15995469689369202 0.10064350068569183 0.15817297995090485
0.0037500609178096056 0.07554421573877335 0.06977183371782303
0.42255741357803345 0.08191578090190887 0.30854111909866333
0.44961410760879517 0.04221541807055473 0.2130206823348999
0.491204172372818 0.07254111766815186 0.08787025511264801
0.867470920085907 0.09789986163377762 0.003750187112018466
0.3915936350822449 0.20765411853790283 0.0871749296784401
0.24206802248954773 0.04020755738019943 0.23281173408031464
0.3901408016681671 0.21744373440742493 0.051835596561431885
0.15440291166305542 0.24717645347118378 0.03751487284898758
0.29033976793289185 0.003750226693227887 0.34271806478500366
0.5587252974510193 0.03868750482797623 0.3210894763469696
0.5631468892097473 0.07471294701099396 0.18482932448387146
0.8748265504837036 0.003750008065253496 0.1566583216190338
0.41757822036743164 0.0037502250634133816 0.28696659207344055
0.9679694175720215 0.0037502397317439318 0.2121729552745819
0.6776260733604431 0.14327159523963928 0.0037501982878893614
0.9655318260192871 0.09279818832874298 0.0037501007318496704
0.45767003297805786 0.08098776638507843 0.3035253882408142
0.21616224944591522 0.021959129720926285 0.5887228846549988
0.19226296246051788 0.06875671446323395 0.08758032321929932
0.20183005928993225 0.10991791635751724 0.0037501626648008823
0.07246533781290054 0.3554597496986389 0.0688752606511116
0.31523606181144714 0.12090332806110382 0.2471579611301422
0.29085955023765564 0.04621633142232895 0.3922210931777954
0.11865784972906113 0.3797979950904846 0.07421509921550751
0.1917317807674408 0.015227456577122211 0.08519364893436432
0.3899436295032501 0.032202575355768204 0.11630556732416153
0.5451908111572266 0.061207544058561325 0.03668787330389023
0.36306124925613403 0.06128719449043274 0.1550845056772232
0.553420901298523 0.062389224767684937 0.3395427167415619
0.534472644329071 0.21823589503765106 0.05909721925854683
0.912233829498291 0.09474776685237885 0.020423555746674538
0.9752557873725891 0.043218620121479034 0.08157607913017273
0.635380208492279 0.08211717009544373 0.05795390531420708
0.8970602750778198 0.03553679957985878 0.22311680018901825
0.982261061668396 0.1334671825170517 0.01931297779083252
0.27696579694747925 0.06346146017313004 0.14130234718322754
0.43026360869407654 0.016505025327205658 0.15590991079807281
0.6025665998458862 0.05239250138401985 0.06008510664105415
0.6054368615150452 0.0037502353079617023 0.4203437268733978
0.18759135901927948 0.2953595817089081 0.20758697390556335
0.32324597239494324 0.0037501368205994368 0.0037500527687370777
0.35494524240493774 0.03845323622226715 0.3233964145183563
0.4617888331413269 0.1283685714006424 0.19999580085277557
0.02572665736079216 0.10540970414876938 0.4020596444606781
0.43773332238197327 0.12206260859966278 0.1473223865032196
0.23474562168121338 0.113734170794487 0.10045715421438217
0.2883961498737335 0.12947717308998108 0.21989896893501282
0.542197585105896 0.08242721855640411 0.08454923331737518
0.5185533761978149 0.1212625652551651 0.255835622549057
0.5079849362373352 0.1871211975812912 0.10306522995233536
0.6885360479354858 0.020686296746134758 0.2756205201148987
0.581468939781189 0.16168849170207977 0.05328991264104843
0.8911770582199097 0.0969984158873558 0.09732188284397125
0.6926364898681641 0.029982179403305054 0.1092262864112854
0.8067522048950195 0.04958116263151169 0.12278635799884796
0.8631010055541992 0.18180523812770844 0.02509913221001625
0.9153186082839966 0.12460897117853165 0.07193613797426224
0.5833316445350647 0.18093766272068024 0.10893639177083969
0.45981770753860474 0.14076170325279236 0.12657567858695984
0.028172452002763748 0.4504091739654541 0.004924771375954151
0.2587365508079529 0.1931309849023819 0.20856527984142303
0.126184344291687 0.03235549107193947 0.43811145424842834
0.03239298611879349 0.5021927356719971 0.0971754938364029
0.04332105070352554 0.08430331200361252 0.27042534947395325
0.10962121188640594 0.04591936618089676 0.43518584966659546
0.4469894468784332 0.11710591614246368 0.2300640046596527
0.4357793927192688 0.06111608073115349 0.1557053178548813
0.3019828200340271 0.11625219881534576 0.2235451191663742
0.07823168486356735 0.2504006028175354 0.012265508994460106
0.5305174589157104 0.03843922168016434 0.2974598705768585
0.7079883813858032 0.0037501100450754166 0.4955787658691406
0.6679131984710693 0.003750172909349203 0.21655786037445068
0.7901740670204163 0.19143669307231903 0.03884243965148926
0.7213237881660461 0.017469685524702072 0.2369440495967865
0.6908398270606995 0.13612066209316254 0.021077632904052734
0.564768373966217 0.09089963883161545 0.01977633312344551
0.9384576678276062 0.0037500369362533092 0.46241194009780884
0.3838420808315277 0.09759199619293213 0.07766104489564896
0.9962495565414429 0.0442022942006588 0.29490891098976135
0.8095552325248718 0.02328513376414776 0.40689516067504883
0.235010027885437 0.01882818527519703 0.4853079915046692
0.43881702423095703 0.0330047644674778 0.24525392055511475
0.13346126675605774 0.003750080242753029 0.05258794501423836
0.05192543938755989 0.027262037619948387 0.27065837383270264
0.3484888970851898 0.14281591773033142 0.09162488579750061
0.013289207592606544 0.003750044386833906 0.5887230634689331
0.4396352767944336 0.003750248346477747 0.4822756350040436
0.08756846934556961 0.03448363021016121 0.47411519289016724
0.6803067326545715 0.003750129835680127 0.4569053053855896
0.811254620552063 0.02075374685227871 0.4945046007633209
0.4426395297050476 0.0956239253282547 0.12470187991857529
