0.2004934549331665 0.3831341862678528 0.009495812468230724
0.531197190284729 0.07812892645597458 0.1393326222896576
0.8780463337898254 0.061974573880434036 0.0526784248650074
0.5614229440689087 0.003750225994735956 0.06683104485273361
0.0037500641774386168 0.01604454219341278 0.3598741292953491
0.5435175895690918 0.036761194467544556 0.0037501156330108643
0.3941367566585541 0.3275499939918518 0.04377257823944092
0.06693372875452042 0.01541930716484785 0.31559327244758606
0.39784693717956543 0.34394168853759766 0.18336893618106842
0.030921941623091698 0.003750137984752655 0.5160016417503357
0.0037501484621316195 0.28573137521743774 0.00961960107088089
0.09035272896289825 0.019258927553892136 0.5622894167900085
0.03213459625840187 0.04216248169541359 0.20168673992156982
0.12059400975704193 0.12371160835027695 0.0480114184319973
0.3829229474067688 0.0037502404302358627 0.01864529401063919
0.22810573875904083 0.0037501337938010693 0.14895866811275482
0.8640569448471069 0.04760848730802536 0.05344008654356003
0.16604119539260864 0.2590577304363251 0.03284687548875809
0.7528611421585083 0.0489112064242363 0.1557909995317459
0.3941516876220703 0.08356998860836029 0.035024743527173996
0.5462051630020142 0.27369755506515503 0.009733129292726517
0.7428227066993713 0.06421183794736862 0.08757434040307999
0.5243698954582214 0.043681927025318146 0.0037501812912523746
0.631664514541626 0.012341676279902458 0.08740054816007614
0.13126876950263977 0.003750063944607973 0.2467668354511261
0.533448338508606 0.013179352506995201 0.003750166390091181
0.21941371262073517 0.003750228090211749 0.10985444486141205
0.031047794967889786 0.0284438394010067 0.4489690661430359
0.19943518936634064 0.2586212158203125 0.01765139400959015
0.4008200168609619 0.03285164386034012 0.5797659754753113
0.14584439992904663 0.00375014403834939 0.3530315160751343
0.22138965129852295 0.02942337654531002 0.0037501074839383364
0.03442426770925522 0.018803387880325317 0.38912060856819153
0.3816501796245575 0.022387443110346794 0.020313913002610207
0.5269608497619629 0.1227511614561081 0.0037500460166484118
0.8201793432235718 0.10633005946874619 0.09864582121372223
0.3560866117477417 0.003750098403543234 0.4401720464229584
0.8488629460334778 0.03282931074500084 0.15895220637321472
0.7422586679458618 0.04293062165379524 0.13767386972904205
0.42310208082199097 0.003750086994841695 0.13596796989440918
0.962698757648468 0.0037500516045838594 0.0037501081824302673
0.9946483373641968 0.2695356607437134 0.005656743422150612
0.8127081990242004 0.05833747982978821 0.3226926624774933
0.7593176960945129 0.12480354309082031 0.1064385399222374
0.5092837810516357 0.029873430728912354 0.017997581511735916
0.6944316625595093 0.014651226811110973 0.07093185931444168
0.37817007303237915 0.15405899286270142 0.1466849148273468
0.02138669416308403 0.04905065521597862 0.2486838847398758
0.020357344299554825 0.07681231945753098 0.231253981590271
0.30005401372909546 0.026746580377221107 0.36618033051490784
0.28056028485298157 0.032665278762578964 0.3641757667064667
0.2180163562297821 0.24430295825004578 0.02945030853152275
0.5478188395500183 0.06999161839485168 0.06834711134433746
0.2929115295410156 0.05737869068980217 0.3063338100910187
0.5392693281173706 0.3948290944099426 0.07658595591783524
0.9500370025634766 0.01841227151453495 0.2309190332889557
0.5466113686561584 0.020364800468087196 0.5301513671875
0.4522913992404938 0.0037500467151403427 0.482413113117218
0.14436426758766174 0.041628483682870865 0.5271049737930298
0.24217407405376434 0.003750006202608347 0.21774622797966003
0.9288305044174194 0.0947946161031723 0.09719046205282211
0.3929077088832855 0.012780308723449707 0.11887514591217041
0.9962495565414429 0.08796848356723785 0.06545067578554153
0.41366133093833923 0.04126371815800667 0.11385811865329742
0.5254561305046082 0.05463666468858719 0.054757870733737946
0.7671931385993958 0.016057707369327545 0.0989178866147995
0.2651081085205078 0.04003322869539261 0.13645559549331665
0.39300474524497986 0.0897596925497055 0.19284310936927795
0.1588851362466812 0.08038535714149475 0.34985893964767456
0.1796395480632782 0.3780912756919861 0.047409288585186005
0.16240930557250977 0.08430886268615723 0.3651316165924072
0.0037500292528420687 0.03478217124938965 0.472390741109848
0.23546986281871796 0.003750244854018092 0.38276854157447815
0.4336628317832947 0.003750231582671404 0.49178630113601685
0.09045761078596115 0.0739796832203865 0.03706048056483269
0.6744651794433594 0.029042009264230728 0.019953234121203423
0.49044734239578247 0.0037500900216400623 0.15942157804965973
0.5073615312576294 0.10128997266292572 0.28990983963012695
0.6578562259674072 0.051816411316394806 0.07285849004983902
0.6039907932281494 0.15217283368110657 0.04609696567058563
0.3113347887992859 0.18309149146080017 0.0037501011975109577
0.805701732635498 0.2598615884780884 0.004642127081751823
0.8599139451980591 0.0781904011964798 0.1655636727809906
0.7481734752655029 0.0182967372238636 0.14609666168689728
0.32000476121902466 0.10304976999759674 0.020240193232893944
0.8200844526290894 0.14926142990589142 0.003750051138922572
0.42248979210853577 0.09748143702745438 0.017631273716688156
0.28657788038253784 0.07033168524503708 0.08973401039838791
0.5190944671630859 0.01934063993394375 0.3751135468482971
0.1372484564781189 0.3415830135345459 0.010924880392849445
0.03336280584335327 0.032352834939956665 0.24529695510864258
0.18845126032829285 0.2544189393520355 0.005795138888061047
0.07527230679988861 0.0037501626648008823 0.4961458742618561
0.17246803641319275 0.04850123077630997 0.3213880658149719
0.32900649309158325 0.032049745321273804 0.4432132840156555
0.41014179587364197 0.04455237090587616 0.23162150382995605
0.42899709939956665 0.057732563465833664 0.3873680531978607
0.396271288394928 0.017074432224035263 0.5666948556900024
0.37093788385391235 0.31281495094299316 0.045201949775218964
0.36779946088790894 0.11551247537136078 0.06740570068359375
0.926525890827179 0.0037502050399780273 0.1853429228067398
0.5028530955314636 0.013539843261241913 0.09599263966083527
0.8110631108283997 0.04030191898345947 0.058382946997880936
0.9803460240364075 0.07815642654895782 0.19069156050682068
0.5014194250106812 0.18182875216007233 0.0744335800409317
0.49940308928489685 0.29224565625190735 0.02555585466325283
0.5908022522926331 0.07301530987024307 0.05134729668498039
0.8528541326522827 0.0037500839680433273 0.11174788326025009
0.45406633615493774 0.13014601171016693 0.14968112111091614
0.3368353247642517 0.0867573693394661 0.0037500790785998106
0.7791566848754883 0.24039092659950256 0.03399762138724327
0.15449091792106628 0.016295719891786575 0.45730385184288025
0.41290050745010376 0.18290287256240845 0.11899945884943008
0.0861421748995781 0.1218666210770607 0.021317819133400917
0.3754245638847351 0.09112407267093658 0.25647756457328796
0.1319848597049713 0.3136492669582367 0.0053002187050879
0.37374526262283325 0.06567119061946869 0.2832653522491455
0.22838322818279266 0.2161402404308319 0.014727890491485596
0.23641793429851532 0.10346056520938873 0.2557564377784729
0.05533658713102341 0.01574629172682762 0.10372283309698105
0.626203715801239 0.173190638422966 0.075617715716362
0.6336922645568848 0.08397015184164047 0.21519461274147034
0.9248889684677124 0.08726056665182114 0.1200137585401535
0.30915990471839905 0.0037501242477446795 0.038826800882816315
0.6985340118408203 0.051225852221250534 0.10716669261455536
0.47413450479507446 0.1317654550075531 0.1507245898246765
0.915623664855957 0.20104677975177765 0.0934978723526001
0.565490186214447 0.3871106505393982 0.012228982523083687
0.981552243232727 0.0037501505576074123 0.08891899138689041
0.9962495565414429 0.09644392132759094 0.023196419700980186
0.3098404109477997 0.49200862646102905 0.021053772419691086
0.22577543556690216 0.049886930733919144 0.3212038576602936
0.19717848300933838 0.07039418816566467 0.4067719876766205
0.41994380950927734 0.022119922563433647 0.0037500783801078796
0.3431570529937744 0.0334104485809803 0.5918912887573242
0.2675156593322754 0.23837995529174805 0.01832098700106144
0.2329147309064865 0.10781626403331757 0.19471828639507294
0.17974671721458435 0.10215679556131363 0.20480291545391083
0.08482031524181366 0.027188504114747047 0.2846842408180237
0.6097211241722107 0.04268381744623184 0.15788744390010834
0.30146872997283936 0.015576216392219067 0.3113028407096863
0.49074405431747437 0.07346946746110916 0.20535507798194885
0.5773846507072449 0.021708518266677856 0.43537911772727966
0.9343149065971375 0.0335177518427372 0.18474063277244568
0.41771912574768066 0.3249778151512146 0.0037501691840589046
0.8931419253349304 0.0037501566112041473 0.06979052722454071
0.6620705723762512 0.30567285418510437 0.06238778308033943
0.9614205360412598 0.022349856793880463 0.33179202675819397
0.9962495565414429 0.051049672067165375 0.26587843894958496
0.40694743394851685 0.020594505593180656 0.13873925805091858
0.5835321545600891 0.08747896552085876 0.07792288810014725
0.2616655230522156 0.06279239803552628 0.3131791353225708
0.5986189842224121 0.0869642049074173 0.30954939126968384
0.1310398280620575 0.030604984611272812 0.568727433681488
0.3063504099845886 0.06444437801837921 0.29423031210899353
0.13008274137973785 0.07202046364545822 0.12490855157375336
0.13482728600502014 0.4328750967979431 0.06788434088230133
0.3213495910167694 0.09531088918447495 0.09148912131786346
0.36342620849609375 0.3486378490924835 0.05739036947488785
0.5059363842010498 0.003750105854123831 0.19115377962589264
0.3544076085090637 0.060077160596847534 0.3731585741043091
0.5583552122116089 0.15769124031066895 0.09440427273511887
0.1321057230234146 0.0037501747719943523 0.04310077801346779
0.8864644169807434 0.0037501503247767687 0.593680739402771
0.9165945053100586 0.0905192643404007 0.0037501968909054995
0.4966939389705658 0.03198576346039772 0.05607052519917488
0.25144240260124207 0.0276379082351923 0.18177194893360138
0.634708046913147 0.15388964116573334 0.04437876492738724
0.4039718508720398 0.09513911604881287 0.0427730567753315
0.3853524327278137 0.10794121026992798 0.020626425743103027
0.39609453082084656 0.015569796785712242 0.036477021872997284
0.5653679966926575 0.031234079971909523 0.536145806312561
0.2388850450515747 0.15826192498207092 0.041455768048763275
0.20686718821525574 0.09686943143606186 0.2804124653339386
0.060949306935071945 0.043796565383672714 0.018411781638860703
0.33241984248161316 0.09230972826480865 0.3123581111431122
0.2076740264892578 0.147547647356987 0.10911117494106293
0.29521888494491577 0.060475319623947144 0.4580831527709961
0.5158358812332153 0.01673908717930317 0.24630554020404816
0.3229007124900818 0.1513650119304657 0.07576733827590942
0.5823875665664673 0.13942663371562958 0.03598931059241295
0.6081944704055786 0.06108499690890312 0.1353088617324829
0.5718066692352295 0.10271374881267548 0.08840687572956085
0.6845095157623291 0.09445428848266602 0.13553377985954285
0.16889223456382751 0.0037500702310353518 0.28417152166366577
0.7351900339126587 0.07915715128183365 0.07330691069364548
0.6071121692657471 0.13842575252056122 0.1386527717113495
0.5842656493186951 0.0741322934627533 0.06868281960487366
0.5232831835746765 0.19779540598392487 0.07410101592540741
0.5981689095497131 0.05271149426698685 0.15297751128673553
0.9227067232131958 0.0037501882761716843 0.3247836232185364
0.9320918321609497 0.015726430341601372 0.07820877432823181
0.23063528537750244 0.12076409161090851 0.02100246585905552
0.027130385860800743 0.09270653873682022 0.35355761647224426
0.0833122506737709 0.312981516122818 0.055588848888874054
0.36810562014579773 0.14382262527942657 0.13403959572315216
0.12436385452747345 0.22151227295398712 0.029973292723298073
0.052686143666505814 0.06968794763088226 0.29449373483657837
0.20900554955005646 0.03411010652780533 0.20635679364204407
0.04140230268239975 0.04063700884580612 0.501796543598175
0.4520953595638275 0.04373347759246826 0.4764562249183655
0.42422857880592346 0.03722983971238136 0.4357474446296692
0.41144776344299316 0.0037501570768654346 0.5675522685050964
0.801642119884491 0.021194668486714363 0.4300861954689026
0.18782855570316315 0.041624464094638824 0.10998377948999405
0.5910492539405823 0.15252253413200378 0.1093832403421402
0.4418352246284485 0.11286244541406631 0.08027017116546631
0.47839340567588806 0.3157269358634949 0.03329191356897354
0.4857114255428314 0.02966742217540741 0.17890195548534393
0.904747486114502 0.1265866756439209 0.0037501149345189333
0.33133465051651 0.003750056028366089 0.21172428131103516
0.49988120794296265 0.14761553704738617 0.037692271173000336
0.9962493777275085 0.02002749778330326 0.3291163444519043
0.8368836641311646 0.10794494301080704 0.18750159442424774
0.7080022096633911 0.018569836392998695 0.23914912343025208
0.09680505096912384 0.09534480422735214 0.24631750583648682
0.3872595429420471 0.024524163454771042 0.40908700227737427
0.8892986178398132 0.0037502176128327847 0.4809274673461914
0.07635750621557236 0.1459544599056244 0.003750115167349577
0.49703797698020935 0.07568001002073288 0.3126938045024872
0.5341944694519043 0.021859943866729736 0.5108034610748291
0.3719957172870636 0.15394440293312073 0.021076492965221405
0.4985593259334564 0.0912710577249527 0.17610323429107666
0.4136947989463806 0.07829632610082626 0.0402168333530426
0.5053336024284363 0.07168246805667877 0.2562825083732605
0.6343402862548828 0.08204369246959686 0.1437394917011261
0.13542583584785461 0.10210959613323212 0.09448274970054626
0.711585521697998 0.09651508182287216 0.27323290705680847
0.8160812258720398 0.0037501584738492966 0.5413767099380493
0.7026777267456055 0.046947285532951355 0.1603594869375229
0.5035437941551208 0.013846388086676598 0.06047963351011276
0.47571438550949097 0.09101174771785736 0.053764909505844116
0.8551990389823914 0.10288957506418228 0.11007456481456757
0.21149568259716034 0.01605885475873947 0.27491575479507446
0.5138040781021118 0.054948799312114716 0.34686392545700073
0.8105031847953796 0.0227607823908329 0.45831099152565
0.19185492396354675 0.08351707458496094 0.39170747995376587
0.019835393875837326 0.0830586776137352 0.29167959094047546
0.2884085178375244 0.015891332179307938 0.43567389249801636
0.01996522955596447 0.10557614266872406 0.3716017007827759
0.07012815773487091 0.003750097006559372 0.17945846915245056
0.22501413524150848 0.05044759437441826 0.4737003445625305
0.0942792072892189 0.0037500306498259306 0.4993734359741211
0.24907346069812775 0.0037501330953091383 0.3694831132888794
0.15282884240150452 0.0317002609372139 0.2501136362552643
0.30081427097320557 0.09198493510484695 0.2723892629146576
0.8804365992546082 0.12782414257526398 0.04599320888519287
0.9210913777351379 0.003750250209122896 0.15300698578357697
0.7362617254257202 0.08052859455347061 0.21173329651355743
0.9300110936164856 0.1606677621603012 0.031184766441583633
0.8019227981567383 0.22217591106891632 0.06240713596343994
0.9607467651367188 0.08385251462459564 0.15955707430839539
0.6113393306732178 0.24779196083545685 0.003750166390091181
0.43924108147621155 0.2606792151927948 0.0037501759361475706
0.9818412661552429 0.05712834745645523 0.045166440308094025
0.6197874546051025 0.11269781738519669 0.21330885589122772
0.02219581790268421 0.04407230764627457 0.29716238379478455
0.5992379188537598 0.04907907918095589 0.3669774830341339
0.7540301084518433 0.003750936593860388 0.6165271997451782
0.6690798997879028 0.2343018800020218 0.06984008848667145
0.297846257686615 0.010624540969729424 0.5588372945785522
0.13112381100654602 0.003750111907720566 0.1384647935628891
0.03979889675974846 0.0037502378690987825 0.16290797293186188
0.08506456762552261 0.06120128557085991 0.3901461660861969
0.09126690030097961 0.4078924059867859 0.05999127775430679
0.1649760603904724 0.0037502304185181856 0.49362578988075256
0.6059163808822632 0.23396673798561096 0.08123670518398285
0.8702782392501831 0.022485163062810898 0.34264224767684937
0.5400733947753906 0.33276015520095825 0.12357562780380249
0.8997657895088196 0.0037622570525854826 0.5948127508163452
0.6356602907180786 0.17668816447257996 0.042074959725141525
0.7666900753974915 0.10633953660726547 0.0037502211052924395
0.698763370513916 0.07907673716545105 0.07545892894268036
0.9387091398239136 0.02459057793021202 0.3782646059989929
0.9962496757507324 0.04478808119893074 0.1180286556482315
0.8310450315475464 0.06662067770957947 0.06274145096540451
0.1258384883403778 0.055644940584897995 0.20454220473766327
0.4353410601615906 0.0037500187754631042 0.24888435006141663
0.32203197479248047 0.024061603471636772 0.5140664577484131
0.8514009714126587 0.0037500225007534027 0.19824954867362976
0.12539874017238617 0.13829079270362854 0.029987867921590805
0.22904106974601746 0.08011947572231293 0.003750242991372943
0.021834280341863632 0.041926320642232895 0.336548775434494
0.07685991376638412 0.003750136587768793 0.5329186916351318
0.23957307636737823 0.061837196350097656 0.3699280023574829
0.018050868064165115 0.013429087586700916 0.3035157024860382
0.27845728397369385 0.013384413905441761 0.5529271364212036
0.3004899024963379 0.33370253443717957 0.03549128398299217
0.8603118658065796 0.003750171512365341 0.3905598819255829
0.9351534843444824 0.038744114339351654 0.3570784628391266
0.40140923857688904 0.41614484786987305 0.028614884242415428
0.6838523149490356 0.2507546544075012 0.10715081542730331
0.45489344000816345 0.21391265094280243 0.04942027106881142
0.5913726687431335 0.06378085911273956 0.30413365364074707
0.9762614369392395 0.02326052263379097 0.46844109892845154
0.920889675617218 0.1781412810087204 0.0455688014626503
0.9404211044311523 0.0171500351279974 0.01950598880648613
0.27600497007369995 0.0923796147108078 0.07303028553724289
0.3188033401966095 0.09335662424564362 0.034613169729709625
0.0684710443019867 0.023976918309926987 0.2941109538078308
0.4081059992313385 0.01419501006603241 0.1089261919260025
0.06512477248907089 0.018122654408216476 0.411160945892334
0.2443924844264984 0.032636698335409164 0.5944736003875732
0.49237751960754395 0.029251690953969955 0.1629493683576584
0.4758594036102295 0.09774711728096008 0.3158870339393616
0.34065869450569153 0.017841286957263947 0.4336046576499939
0.503879725933075 0.029825951904058456 0.18004530668258667
0.39227229356765747 0.003750203177332878 0.3069937825202942
0.709568440914154 0.003751767799258232 0.616527259349823
0.6537513136863708 0.14549127221107483 0.0037500616163015366
0.870129406452179 0.003750074189156294 0.40313416719436646
0.5323521494865417 0.13968464732170105 0.04509300738573074
0.9162837862968445 0.022530652582645416 0.5753668546676636
0.946734607219696 0.1323126256465912 0.05981604382395744
0.7016280293464661 0.14987479150295258 0.0700804814696312
0.28304430842399597 0.02535814419388771 0.09894144535064697
0.8358330726623535 0.05645710229873657 0.23486526310443878
0.8803234100341797 0.06856538355350494 0.020857825875282288
0.19930094480514526 0.0745680183172226 0.07661812007427216
0.4601169526576996 0.05587856099009514 0.07471192628145218
0.02951590158045292 0.41152849793434143 0.14282380044460297
0.28466689586639404 0.03697416931390762 0.4001975953578949
0.40075820684432983 0.011729208752512932 0.1725386530160904
0.22926707565784454 0.24484236538410187 0.14213111996650696
0.17613498866558075 0.01579882949590683 0.4847395420074463
0.24280066788196564 0.08171088993549347 0.3403661549091339
0.8308717012405396 0.0037501812912523746 0.5455296635627747
0.1373659074306488 0.06443922221660614 0.08747142553329468
0.11338243633508682 0.003750057425349951 0.39561817049980164
0.5690540671348572 0.0904606431722641 0.3005976676940918
0.39949876070022583 0.386452853679657 0.029817845672369003
0.8416388630867004 0.0037500145845115185 0.6165273189544678
0.64329594373703 0.11909361183643341 0.022359218448400497
0.4590674936771393 0.1816912293434143 0.022401954978704453
0.9748203158378601 0.04761981964111328 0.24603566527366638
0.45306459069252014 0.0938790887594223 0.269313782453537
0.9379825592041016 0.09924928843975067 0.14990730583667755
0.2391868382692337 0.08380082994699478 0.1633203774690628
0.9629122018814087 0.038629792630672455 0.2803240120410919
0.6745623350143433 0.18181760609149933 0.07421812415122986
0.9346380233764648 0.05400141328573227 0.2578861713409424
0.3017559349536896 0.0037501428741961718 0.5742655992507935
0.1781625747680664 0.03129502013325691 0.13114704191684723
0.23735792934894562 0.054425884038209915 0.34288573265075684
0.04347572475671768 0.003750117961317301 0.5070158839225769
0.03247826173901558 0.0037500145845115185 0.19429168105125427
0.6913115382194519 0.024683941155672073 0.019215038046240807
0.5349356532096863 0.12237200886011124 0.1226956844329834
0.42944449186325073 0.07084561884403229 0.2515418231487274
0.39064159989356995 0.23267777264118195 0.0037500038743019104
0.44596418738365173 0.016253024339675903 0.5661529898643494
0.6640787124633789 0.01649181731045246 0.36837145686149597
0.5426484942436218 0.12432016432285309 0.036010824143886566
0.8597227931022644 0.30306172370910645 0.03426113724708557
0.5425043106079102 0.21308550238609314 0.09773071110248566
0.7221866846084595 0.06643687188625336 0.03765816614031792
0.6864930391311646 0.16924624145030975 0.04227913171052933
0.4785959720611572 0.1676529496908188 0.10058610141277313
0.8801847696304321 0.327168345451355 0.004859956447035074
0.45277151465415955 0.1794109046459198 0.06852029263973236
0.22509613633155823 0.05275864154100418 0.07485655695199966
0.7839847803115845 0.11733301728963852 0.06043785810470581
0.03765646368265152 0.060374461114406586 0.21547642350196838
0.29763123393058777 0.421933650970459 0.042879071086645126
0.022226277738809586 0.0037502176128327847 0.4968011975288391
0.0038051020819693804 0.33603763580322266 0.013777308166027069
0.02469114027917385 0.04746757447719574 0.5031313896179199
0.028610344976186752 0.10336850583553314 0.2545919418334961
0.03128645941615105 0.02962777018547058 0.598960280418396
0.4188956618309021 0.06949211657047272 0.09294891357421875
0.29377371072769165 0.029107537120580673 0.5537816286087036
0.9962496757507324 0.003750056494027376 0.2406480312347412
0.7126864790916443 0.03826911747455597 0.335105299949646
0.5241371989250183 0.060001350939273834 0.3599696755409241
0.8794894218444824 0.2312747687101364 0.029657920822501183
0.5554995536804199 0.0037501573096960783 0.5099056959152222
0.7278962135314941 0.2736794054508209 0.09602145850658417
0.8227838277816772 0.06987957656383514 0.22336089611053467
0.808508038520813 0.0318673700094223 0.09828853607177734
0.7053161859512329 0.1035328134894371 0.037823088467121124
0.8626133799552917 0.27433109283447266 0.06178564950823784
0.0037502306513488293 0.09962163120508194 0.3063351511955261
0.878463625907898 0.017612239345908165 0.179245725274086
0.003750006901100278 0.0037500769831240177 0.5659693479537964
0.4026579260826111 0.3460414409637451 0.03927239030599594
0.4262349605560303 0.030862459912896156 0.5823256373405457
0.22210964560508728 0.3458388149738312 0.18537840247154236
0.11027590930461884 0.1999969184398651 0.22654156386852264
0.22788743674755096 0.10486806929111481 0.02125408872961998
0.0883903056383133 0.12014230340719223 0.087008997797966
0.3633037805557251 0.04633934423327446 0.29701972007751465
0.7348247766494751 0.0037502343766391277 0.0037500441540032625
0.3598777651786804 0.09761254489421844 0.09769237786531448
0.025222424417734146 0.06776152551174164 0.38811203837394714
0.10565429925918579 0.011959604918956757 0.09696512669324875
0.6582258939743042 0.057570137083530426 0.16012144088745117
0.778971791267395 0.1118370071053505 0.1379159390926361
0.6934205889701843 0.003750154282897711 0.020955318585038185
0.5824581384658813 0.11351251602172852 0.02193624898791313
0.6603631973266602 0.2872087359428406 0.09287339448928833
0.596295177936554 0.012620853260159492 0.1182386502623558
0.9962496757507324 0.02286742627620697 0.4561130404472351
0.7574108839035034 0.047610409557819366 0.13289232552051544
0.5620564818382263 0.04432270675897598 0.21328410506248474
0.0037501431070268154 0.09138239175081253 0.1302790343761444
0.14815223217010498 0.003750250209122896 0.38319915533065796
0.5327436327934265 0.029229287058115005 0.003750066040083766
0.12823452055454254 0.0163114033639431 0.3704795241355896
0.08487269282341003 0.053200554102659225 0.3024945855140686
0.1293332427740097 0.03159172087907791 0.13405194878578186
0.5519274473190308 0.021224956959486008 0.49127450585365295
0.6053693890571594 0.09815117716789246 0.13605017960071564
0.17895033955574036 0.08727993816137314 0.052936337888240814
0.6634783148765564 0.019046807661652565 0.025057852268218994
0.0037500630132853985 0.04848224297165871 0.365909218788147
0.44969552755355835 0.0037501926999539137 0.1571008265018463
0.24154074490070343 0.0037501156330108643 0.1340475082397461
0.930730938911438 0.03945600613951683 0.04202074557542801
0.48170918226242065 0.33350124955177307 0.04198475927114487
0.7237551212310791 0.06118009611964226 0.15054887533187866
0.42557716369628906 0.10481210798025131 0.0932830199599266
0.684494137763977 0.07738782465457916 0.20096468925476074
0.8897091150283813 0.3170119822025299 0.044628217816352844
0.5822094678878784 0.19949796795845032 0.00375004718080163
0.07896673679351807 0.041724249720573425 0.042941685765981674
0.1486549824476242 0.10393822193145752 0.1638936549425125
0.10167394578456879 0.048836588859558105 0.2979680001735687
0.6574115753173828 0.017533959820866585 0.06379718333482742
0.5693115592002869 0.0037502225022763014 0.11342517286539078
0.15547028183937073 0.052100956439971924 0.09537395089864731
0.35903289914131165 0.003750074654817581 0.0037502236664295197
0.3961106240749359 0.10474784672260284 0.2533782720565796
0.12593965232372284 0.16458259522914886 0.003750025760382414
0.23484376072883606 0.12925206124782562 0.12303270399570465
0.2304859161376953 0.0908735916018486 0.23677587509155273
0.7640589475631714 0.08957938104867935 0.07784287631511688
0.4035700261592865 0.5392933487892151 0.026702171191573143
0.266067773103714 0.09403740614652634 0.13606837391853333
0.7753824591636658 0.06369059532880783 0.07886184751987457
0.12648136913776398 0.00375024089589715 0.4731581211090088
0.983993411064148 0.10110976547002792 0.12806394696235657
0.5997840762138367 0.027814868837594986 0.0037500287871807814
0.32168662548065186 0.06739050149917603 0.09553811699151993
0.5752243995666504 0.07762745022773743 0.03947732597589493
0.6563239693641663 0.003750155447050929 0.10442527383565903
0.42098671197891235 0.09991253167390823 0.2678202688694
0.9441472887992859 0.003750226926058531 0.0549478754401207
0.4810276925563812 0.03713363781571388 0.003750042524188757
0.018590493127703667 0.0037500362377613783 0.2723039984703064
0.334534615278244 0.20686879754066467 0.3662793040275574
0.2898161709308624 0.016263136640191078 0.1309141218662262
0.08673372864723206 0.06377293169498444 0.21231158077716827
0.7339068651199341 0.25089147686958313 0.17579947412014008
0.18351614475250244 0.22360563278198242 0.14339148998260498
0.31683772802352905 0.030325468629598618 0.2184845209121704
0.21248789131641388 0.056714098900556564 0.15597887337207794
0.44430604577064514 0.05416034907102585 0.05181266739964485
0.9499910473823547 0.0037501018960028887 0.5598699450492859
0.39612171053886414 0.40143340826034546 0.0055498699657619
0.6236817836761475 0.05841723084449768 0.1207217127084732
0.9962494969367981 0.030641090124845505 0.1656096875667572
0.7512623071670532 0.02733156643807888 0.10600598156452179
0.7300061583518982 0.08620397746562958 0.13594868779182434
0.9243562817573547 0.22415223717689514 0.007948512211441994
0.9485553503036499 0.02297724224627018 0.30781152844429016
0.7867733836174011 0.11545391380786896 0.09084759652614594
0.6892210841178894 0.0292128287255764 0.0037500690668821335
0.1402343213558197 0.0037501933984458447 0.22369973361492157
0.33547845482826233 0.07611854374408722 0.12956181168556213
0.180388942360878 0.03216177970170975 0.3122340738773346
0.7669974565505981 0.18386676907539368 0.02302728220820427
0.10295689105987549 0.07393787801265717 0.2750587463378906
0.2616238594055176 0.10892222076654434 0.1462012231349945
0.1087108626961708 0.07636071741580963 0.24455344676971436
0.3949114978313446 0.0037501014303416014 0.44581103324890137
0.1573510617017746 0.0037501640617847443 0.21890144050121307
0.67684406042099 0.0037501086480915546 0.16789361834526062
0.9108486175537109 0.25777876377105713 0.06592360883951187
0.5647159218788147 0.01648886501789093 0.019622687250375748
0.22827067971229553 0.1292223036289215 0.3597232699394226
0.29399847984313965 0.019299179315567017 0.14916197955608368
0.6959253549575806 0.27388614416122437 0.10562753677368164
0.3725012242794037 0.0037501975893974304 0.12259991466999054
0.9212943315505981 0.0037501840852200985 0.09947174787521362
0.6593034267425537 0.37381625175476074 0.003750026226043701
0.9569595456123352 0.003750152885913849 0.11456137895584106
0.18383567035198212 0.06722617894411087 0.18211880326271057
0.784636914730072 0.10817903280258179 0.003750054631382227
0.41050809621810913 0.04697924107313156 0.3566731810569763
0.25127285718917847 0.01884019747376442 0.3991805613040924
0.2945719361305237 0.07368116825819016 0.2676597535610199
0.052072297781705856 0.02936292253434658 0.4502533972263336
0.7737741470336914 0.0216355137526989 0.345417320728302
0.12689770758152008 0.020184459164738655 0.045997146517038345
0.003750099567696452 0.04769501835107803 0.0037502399645745754
0.5647427439689636 0.0755351260304451 0.06952862441539764
0.018341878429055214 0.046135492622852325 0.03517375886440277
0.4289320409297943 0.15151934325695038 0.10079222917556763
0.0891665369272232 0.03370518237352371 0.2634846568107605
0.8155978322029114 0.043017901480197906 0.3447408974170685
0.8271732330322266 0.0577043816447258 0.003750092815607786
0.946158766746521 0.05589867755770683 0.09074198454618454
0.7789479494094849 0.1358363777399063 0.06287524849176407
0.7829996347427368 0.013763941824436188 0.09196938574314117
0.6934286952018738 0.09405703097581863 0.08088934421539307
0.19966915249824524 0.07813884317874908 0.09439437091350555
0.7416430711746216 0.10309307277202606 0.003750104922801256
0.7828522324562073 0.20152203738689423 0.05395912379026413
0.065633624792099 0.013896092772483826 0.13432571291923523
0.19873622059822083 0.058959733694791794 0.24958038330078125
0.2776489555835724 0.05534837767481804 0.2520655691623688
0.26416194438934326 0.433678537607193 0.11113014072179794
0.16272464394569397 0.03089914843440056 0.06799875199794769
0.18682360649108887 0.5067647099494934 0.003750153351575136
0.23627546429634094 0.23545309901237488 0.02035854384303093
0.13861089944839478 0.059151601046323776 0.10535739362239838
0.6458185911178589 0.08227803558111191 0.023915953934192657
0.3095107078552246 0.44505587220191956 0.017024992033839226
0.3761642873287201 0.34500688314437866 0.04422789439558983
0.6616803407669067 0.04134935513138771 0.08728695660829544
0.5845634937286377 0.034284185618162155 0.2102387249469757
0.7315545082092285 0.11456811428070068 0.003750007599592209
0.9494291543960571 0.08193238079547882 0.24412059783935547
0.2780453562736511 0.06100290268659592 0.16778351366519928
0.4739595353603363 0.0695217177271843 0.08279605209827423
0.8206121325492859 0.10988156497478485 0.1844799816608429
0.4071123003959656 0.0037502243649214506 0.03949201852083206
0.12213993072509766 0.05383622646331787 0.02867177687585354
0.24317625164985657 0.13387800753116608 0.08547897636890411
0.190506711602211 0.0777202770113945 0.34460991621017456
0.2253223955631256 0.03342770040035248 0.21110665798187256
0.4144690930843353 0.31799668073654175 0.0170549638569355
0.4535415768623352 0.0037500825710594654 0.4617158770561218
0.13538433611392975 0.0319637767970562 0.21497103571891785
0.3121197819709778 0.06529562920331955 0.45592206716537476
0.3007858991622925 0.08396012336015701 0.23907887935638428
0.13371214270591736 0.451657235622406 0.009047666564583778
0.3566914200782776 0.055048443377017975 0.3512640595436096
0.330868124961853 0.14348740875720978 0.02074752375483513
0.6316964030265808 0.12390357255935669 0.2114289104938507
0.4593278467655182 0.05929046869277954 0.16479679942131042
0.5966230034828186 0.0756840631365776 0.10240150988101959
0.873008131980896 0.0037502064369618893 0.18088789284229279
0.5724968314170837 0.03132852166891098 0.003750112373381853
0.959572434425354 0.06137111783027649 0.020213544368743896
0.46960192918777466 0.1125345453619957 0.06145631521940231
0.36916881799697876 0.030524278059601784 0.020894858986139297
0.9276527166366577 0.08185189962387085 0.021305905655026436
0.25213420391082764 0.22215433418750763 0.01593160256743431
0.4364987015724182 0.2780219316482544 0.0037501517217606306
0.22041022777557373 0.029249802231788635 0.192572683095932
0.05756146460771561 0.28799620270729065 0.04015471413731575
0.392962783575058 0.09024102985858917 0.1376112401485443
0.23376229405403137 0.02938106283545494 0.5252243280410767
0.2858717739582062 0.04956694692373276 0.3651367723941803
0.32798632979393005 0.10577239096164703 0.2129809856414795
0.32841211557388306 0.07706794142723083 0.17990228533744812
0.3782341778278351 0.06061438471078873 0.2995739281177521
0.5702597498893738 0.017046689987182617 0.14708535373210907
0.254591703414917 0.09275908768177032 0.06868313252925873
0.4688143730163574 0.02220097929239273 0.3896203637123108
0.7913321256637573 0.04719458147883415 0.036340512335300446
0.5034652948379517 0.12397018820047379 0.08625544607639313
0.8966438174247742 0.014439198188483715 0.0556916780769825
0.6194105744361877 0.2737182378768921 0.13377860188484192
0.6559301614761353 0.03306755796074867 0.17213523387908936
0.6494523882865906 0.06100551038980484 0.20123811066150665
0.9782823324203491 0.05837293341755867 0.02552853897213936
0.8860751986503601 0.25706762075424194 0.0037500951439142227
0.16078409552574158 0.003750197123736143 0.14059020578861237
0.941900372505188 0.07391136884689331 0.2011958807706833
0.22363686561584473 0.04806828871369362 0.05159062147140503
0.2101455181837082 0.16366128623485565 0.07958979159593582
0.13048411905765533 0.35639044642448425 0.016302267089486122
0.2800223231315613 0.08925361186265945 0.29916688799858093
0.35225701332092285 0.07478004693984985 0.003750135423615575
0.029900282621383667 0.09925205260515213 0.236148864030838
0.06576288491487503 0.006893578916788101 0.2873786687850952
0.4636964797973633 0.003750112373381853 0.32422906160354614
0.4780665338039398 0.0693148821592331 0.003750137984752655
0.7356976866722107 0.0037501011975109577 0.22874407470226288
0.1761428266763687 0.12145334482192993 0.05031708627939224
0.6014607548713684 0.2856484651565552 0.09502056986093521
0.6999374628067017 0.09970498085021973 0.15833482146263123
0.9647717475891113 0.04835905134677887 0.1710682213306427
0.6305310130119324 0.03630577772855759 0.05399482697248459
0.8014926910400391 0.07434509694576263 0.059702493250370026
0.47034138441085815 0.06411571800708771 0.11162678152322769
0.43108606338500977 0.024530354887247086 0.04891160503029823
0.3675200641155243 0.04836786165833473 0.5079022645950317
0.31593090295791626 0.25680309534072876 0.04314927011728287
0.4478926658630371 0.017130393534898758 0.26387783885002136
0.165269136428833 0.1605788767337799 0.019990377128124237
0.17835524678230286 0.015260085463523865 0.097489133477211
0.15143850445747375 0.0818198025226593 0.32569563388824463
0.21486970782279968 0.034936003386974335 0.41231876611709595
0.20267851650714874 0.07077623158693314 0.1929914653301239
0.26426130533218384 0.08821365982294083 0.33765503764152527
0.4835917055606842 0.0037502055056393147 0.5025733113288879
0.0037501524202525616 0.003750187112018466 0.10226869583129883
0.2668050229549408 0.024213017895817757 0.026203781366348267
0.2661173939704895 0.07113859057426453 0.3325651288032532
0.4292874336242676 0.06165875867009163 0.2949953079223633
0.6681625843048096 0.12072910368442535 0.07762478291988373
0.34302717447280884 0.207423135638237 0.2642975151538849
0.6661258935928345 0.03764938563108444 0.15874885022640228
0.8408652544021606 0.021637294441461563 0.35583221912384033
0.38438689708709717 0.05883772298693657 0.05219140648841858
0.5373378992080688 0.2154831439256668 0.03810761868953705
0.19429606199264526 0.2872820794582367 0.10352538526058197
0.47264179587364197 0.2778513729572296 0.0037501100450754166
0.9179433584213257 0.061767227947711945 0.09581032395362854
0.23443588614463806 0.104339100420475 0.123652383685112
0.3412353992462158 0.01632455550134182 0.36126571893692017
0.008927770890295506 0.46920472383499146 0.00393694406375289
0.1161213368177414 0.12916287779808044 0.13602697849273682
0.029405245557427406 0.2305247038602829 0.03401874750852585
0.2850232422351837 0.14399541914463043 0.0037502304185181856
0.42011648416519165 0.0037500853650271893 0.003750147996470332
0.22108452022075653 0.07928262650966644 0.06641186773777008
0.18582195043563843 0.12744911015033722 0.10171051323413849
0.8858868479728699 0.08184445649385452 0.04014979302883148
0.038528382778167725 0.06844675540924072 0.11522863060235977
0.6627429127693176 0.11849870532751083 0.2077375203371048
0.42651042342185974 0.1514212191104889 0.02069290727376938
0.3641870617866516 0.23373261094093323 0.015470718964934349
0.7152165174484253 0.053735338151454926 0.0727834701538086
0.696607768535614 0.12527726590633392 0.08253808319568634
0.6714697480201721 0.10584966093301773 0.06351874768733978
0.713617205619812 0.031100427731871605 0.17260512709617615
0.36982113122940063 0.08741776645183563 0.11283276230096817
0.7955313920974731 0.24833166599273682 0.07240822166204453
0.24073374271392822 0.05636443942785263 0.08965614438056946
0.9677402377128601 0.003750009462237358 0.3507601320743561
0.7012724876403809 0.1152462512254715 0.09914476424455643
0.46498584747314453 0.06178119778633118 0.003750086994841695
0.14130815863609314 0.06066080927848816 0.43107542395591736
0.2995195686817169 0.01861019805073738 0.4698263704776764
0.19517800211906433 0.11206146329641342 0.1076548844575882
0.006345592439174652 0.08509471267461777 0.5235739946365356
0.06811631470918655 0.1912796050310135 0.003924761898815632
0.01778249628841877 0.06437450647354126 0.0037502418272197247
0.6649130582809448 0.10540012270212173 0.08470891416072845
0.9270505905151367 0.1989603191614151 0.06206835061311722
0.18339845538139343 0.003750135423615575 0.2805970311164856
0.7436746954917908 0.08511580526828766 0.2530990242958069
0.43151408433914185 0.051472146064043045 0.34880369901657104
0.6517282128334045 0.3064515292644501 0.004918278660625219
0.27504962682724 0.08428299427032471 0.0037501449696719646
0.9766747355461121 0.10602033138275146 0.1571688950061798
0.7798649668693542 0.02263234183192253 0.5112256407737732
0.8228344917297363 0.1592472791671753 0.03713797777891159
0.5827005505561829 0.03029177151620388 0.14578844606876373
0.9962495565414429 0.003750241594389081 0.43873685598373413
0.7582749128341675 0.2288718968629837 0.10360783338546753
0.6003700494766235 0.029883522540330887 0.16298344731330872
0.19431230425834656 0.036823250353336334 0.4596852660179138
0.4494658410549164 0.003750197123736143 0.018992595374584198
0.11531183868646622 0.19402539730072021 0.22595059871673584
0.12948475778102875 0.0921836867928505 0.07026062905788422
0.45405420660972595 0.11244484037160873 0.19031944870948792
0.33509328961372375 0.003750042524188757 0.05299097299575806
0.2652137875556946 0.045404694974422455 0.5236515402793884
0.31144431233406067 0.1960449516773224 0.003750170348212123
0.29495713114738464 0.4466504156589508 0.05519792437553406
0.6595195531845093 0.022635921835899353 0.5046757459640503
0.3771795630455017 0.03995135426521301 0.13621081411838531
0.6241263151168823 0.019830554723739624 0.2922929525375366
0.503934919834137 0.14368155598640442 0.18739765882492065
0.7885494232177734 0.06425033509731293 0.19576379656791687
0.7509885430335999 0.07957318425178528 0.003750144736841321
0.4691808819770813 0.15038195252418518 0.09924964606761932
0.5503260493278503 0.1900053322315216 0.06201115995645523
0.9962495565414429 0.055174700915813446 0.22913193702697754
0.5447525978088379 0.07108032703399658 0.10979267209768295
0.41233283281326294 0.052839912474155426 0.12643985450267792
0.49237990379333496 0.10874859243631363 0.13598361611366272
0.39853769540786743 0.2609497308731079 0.06115005537867546
0.305441677570343 0.0037500448524951935 0.056231170892715454
0.43376046419143677 0.003750161500647664 0.5110504031181335
0.18188264966011047 0.29756230115890503 0.030556345358490944
0.34703361988067627 0.0462644025683403 0.003750244854018092
0.09482890367507935 0.13656525313854218 0.0037501584738492966
0.6774925589561462 0.1366453468799591 0.0787181407213211
0.3134661912918091 0.06985732913017273 0.4261767268180847
0.29191917181015015 0.0731104239821434 0.1753716766834259
0.7271641492843628 0.09866712242364883 0.04368721693754196
0.8931630253791809 0.0717044323682785 0.0037501559127122164
0.7288188934326172 0.04767601937055588 0.21564805507659912
0.8051391839981079 0.02395346388220787 0.3435829281806946
0.4348319172859192 0.012441342696547508 0.12718158960342407
0.6648250222206116 0.09002455323934555 0.1431107521057129
0.7132027745246887 0.11252395808696747 0.18103942275047302
0.6953765153884888 0.07530058920383453 0.023608442395925522
0.5828460454940796 0.014583423733711243 0.13474790751934052
0.9526939392089844 0.06913512200117111 0.003750007599592209
0.5265522599220276 0.029620090499520302 0.15667453408241272
0.6945404410362244 0.057289350777864456 0.060726504772901535
0.050957631319761276 0.06365101784467697 0.45004257559776306
0.006790963001549244 0.3211632966995239 0.006904599256813526
0.15549913048744202 0.06946425139904022 0.2757141888141632
0.9453819394111633 0.02662183716893196 0.0780092403292656
0.15049204230308533 0.29396486282348633 0.030315453186631203
0.6067081689834595 0.05701977759599686 0.29150527715682983
0.8980491757392883 0.023037074133753777 0.4683869779109955
0.008893684484064579 0.2024073600769043 0.05322225019335747
0.4094286859035492 0.025698980316519737 0.5427969694137573
0.5433484315872192 0.10470305383205414 0.15337181091308594
0.8166300654411316 0.06940009444952011 0.2547021806240082
0.717458188533783 0.0624348446726799 0.13069266080856323
0.8874586224555969 0.10603581368923187 0.003750147996470332
0.9185032844543457 0.0037501368205994368 0.42367181181907654
0.7842845320701599 0.0037500434555113316 0.5060721635818481
0.8884366750717163 0.08914583176374435 0.07906191051006317
0.9313881993293762 0.05301417037844658 0.07623942941427231
0.3185340166091919 0.015624758787453175 0.10309282690286636
0.8038743734359741 0.0807921290397644 0.13333630561828613
0.5618239045143127 0.0037501833867281675 0.2006501406431198
0.6348926424980164 0.05877836421132088 0.3124556541442871
0.3726254105567932 0.028964731842279434 0.2625536620616913
0.3221903443336487 0.01647852547466755 0.38922253251075745
0.17248600721359253 0.08262999355792999 0.07018204033374786
0.3536299169063568 0.06973109394311905 0.22717614471912384
0.7300382256507874 0.003750064643099904 0.29378050565719604
0.003750221338123083 0.003750209230929613 0.47207745909690857
0.1398906111717224 0.028454069048166275 0.3096763789653778
0.7133148908615112 0.003750054631382227 0.5808832049369812
0.5113393068313599 0.036071427166461945 0.448544979095459
0.6439661979675293 0.0037500604521483183 0.4816111922264099
0.48690009117126465 0.2063596248626709 0.05809922143816948
0.8547069430351257 0.028203267604112625 0.3272779583930969
0.8683668971061707 0.024132326245307922 0.4662795662879944
0.8854438066482544 0.003750291420146823 0.6165273785591125
0.4743214249610901 0.11764377355575562 0.1399279534816742
0.982951283454895 0.0037501477636396885 0.5175374746322632
0.9962495565414429 0.0581575408577919 0.2805304229259491
0.7901859283447266 0.03915820270776749 0.28484341502189636
0.9500988125801086 0.24880480766296387 0.04904826730489731
0.40112704038619995 0.05307281017303467 0.37183254957199097
0.7877709269523621 0.003750224132090807 0.5614916682243347
0.31044358015060425 0.06772984564304352 0.3800446689128876
0.3854442834854126 0.044260527938604355 0.537985622882843
0.3229875862598419 0.044638510793447495 0.37229564785957336
0.33243224024772644 0.44787248969078064 0.009751476347446442
0.1646396666765213 0.039653707295656204 0.5120346546173096
0.19385510683059692 0.02002260647714138 0.4730353355407715
0.6468988060951233 0.21366044878959656 0.1503613293170929
0.34834104776382446 0.07963328808546066 0.3486218750476837
0.4571060240268707 0.06414036452770233 0.3917512595653534
0.5033563375473022 0.2393685281276703 0.0037500772159546614
0.714502215385437 0.2488001137971878 0.07763835042715073
0.8325361013412476 0.07426141202449799 0.1003190129995346
0.9615899324417114 0.0037501961924135685 0.4569510519504547
0.9528673887252808 0.09364326298236847 0.13791963458061218
0.8057283163070679 0.07561091333627701 0.28944846987724304
0.4775318205356598 0.2975511848926544 0.04737814515829086
0.5913654565811157 0.033161669969558716 0.5453494191169739
0.9776493906974792 0.04804164543747902 0.22965529561042786
0.2295861691236496 0.0705462396144867 0.1828341782093048
0.843462347984314 0.058245785534381866 0.003750209230929613
0.7140236496925354 0.11641671508550644 0.044839464128017426
0.871242344379425 0.18012428283691406 0.0037500602193176746
0.6272237300872803 0.0037500527687370777 0.3034227788448334
0.13596150279045105 0.01773095317184925 0.5336066484451294
0.3773269057273865 0.06193185970187187 0.07494499534368515
0.20825771987438202 0.5110219717025757 0.016387933865189552
0.3051513433456421 0.35834962129592896 0.14981554448604584
0.3307490944862366 0.10361336171627045 0.29303857684135437
0.49550899863243103 0.046707965433597565 0.29488635063171387
0.44041794538497925 0.09355902671813965 0.2551043629646301
0.6662967801094055 0.04674550145864487 0.0037502136547118425
0.2920433580875397 0.15634459257125854 0.02549131214618683
0.7843259572982788 0.21968531608581543 0.02915777824819088
0.7075109481811523 0.1476394534111023 0.0359923355281353
0.7668541669845581 0.08299392461776733 0.23969559371471405
0.6364901661872864 0.05927406996488571 0.02939484640955925
0.4752070903778076 0.048870526254177094 0.08649437129497528
0.6078193783760071 0.1438473016023636 0.07981063425540924
0.5055130124092102 0.0037500602193176746 0.23922090232372284
0.9878219366073608 0.028277095407247543 0.37735456228256226
0.15495611727237701 0.01660381443798542 0.541880190372467
0.003750202478840947 0.04569670557975769 0.3826896548271179
0.33016377687454224 0.15228018164634705 0.189948171377182
0.10959768295288086 0.07560520619153976 0.03849553316831589
0.38226228952407837 0.10226421058177948 0.28754907846450806
0.06224099546670914 0.015799647197127342 0.16927754878997803
0.03644932061433792 0.031084928661584854 0.30487412214279175
0.5283543467521667 0.0037501442711800337 0.44217491149902344
0.02074689045548439 0.0037501181941479445 0.4780158996582031
0.47511035203933716 0.0037501610349863768 0.5795088410377502
0.3465515077114105 0.003750024363398552 0.0037501510232686996
0.05103093385696411 0.10163559019565582 0.19985146820545197
0.9069846868515015 0.20968635380268097 0.0037500548642128706
0.43769127130508423 0.04642556980252266 0.4769461750984192
0.47957825660705566 0.15028300881385803 0.1537661999464035
0.5417068004608154 0.14335475862026215 0.0037501435726881027
0.3892618715763092 0.1303654909133911 0.24919597804546356
0.889116108417511 0.17229460179805756 0.043947573751211166
0.536626398563385 0.06748726963996887 0.2930208444595337
0.036715343594551086 0.10865350067615509 0.2164458930492401
0.9387451410293579 0.3103242516517639 0.009022618643939495
0.2933124601840973 0.12880000472068787 0.21579477190971375
0.6611605286598206 0.19483456015586853 0.23188146948814392
0.019419455900788307 0.00940772332251072 0.031499188393354416
0.3370971083641052 0.3417566418647766 0.009506290778517723
0.4548289179801941 0.0037501223850995302 0.3997608423233032
0.2678080201148987 0.12907913327217102 0.1730874627828598
0.15882346034049988 0.01763266883790493 0.42984017729759216
