0.5312260389328003 0.1338428407907486 0.021204965189099312
0.5131956338882446 0.16218890249729156 0.022692767903208733
0.8366920351982117 0.12134154886007309 0.0672280415892601
0.6668046712875366 0.11099036782979965 0.03915103152394295
0.6993838548660278 0.29147645831108093 0.028983553871512413
0.9962493777275085 0.003750219941139221 0.4993245005607605
0.44534721970558167 0.00375015358440578 0.08530013263225555
0.27436208724975586 0.04121929034590721 0.09530548006296158
0.04893505945801735 0.035850901156663895 0.01998249627649784
0.08194254338741302 0.0531865656375885 0.27427437901496887
0.09961903840303421 0.5725530982017517 0.011502956971526146
0.36935287714004517 0.012088088318705559 0.018617790192365646
0.003750020172446966 0.08465231955051422 0.08752121031284332
0.24667330086231232 0.03932765871286392 0.1452646106481552
0.4361615777015686 0.0037502485793083906 0.39839181303977966
0.13306011259555817 0.04168695583939552 0.27105849981307983
0.41477203369140625 0.07328368723392487 0.267314612865448
0.453630268573761 0.27246710658073425 0.14526501297950745
0.08790100365877151 0.10178083181381226 0.1853829324245453
0.863114058971405 0.0600658655166626 0.09315331280231476
0.21783438324928284 0.015918362885713577 0.46359315514564514
0.8832637667655945 0.0932837501168251 0.2235829383134842
0.49976253509521484 0.27282026410102844 0.20194311439990997
0.6337577700614929 0.024903057143092155 0.09863626956939697
0.7632436156272888 0.3587509095668793 0.019885726273059845
0.9962495565414429 0.21586056053638458 0.017939459532499313
0.07216726243495941 0.03434538468718529 0.20622487366199493
0.07739410549402237 0.27534982562065125 0.03925526142120361
0.27255406975746155 0.1641288846731186 0.06887505948543549
0.29456764459609985 0.0037501617334783077 0.003750178962945938
0.00779425073415041 0.2227098047733307 0.02847900427877903
0.5699164867401123 0.0037500683683902025 0.44928377866744995
0.5405871868133545 0.08552826195955276 0.15659329295158386
0.3771215081214905 0.014936357736587524 0.08040127158164978
0.1354704648256302 0.01809537038207054 0.4625968933105469
0.4501553475856781 0.0341966412961483 0.3846406638622284
0.41854754090309143 0.003750086296349764 0.46331948041915894
0.5987175703048706 0.04182957857847214 0.39440059661865234
0.814207911491394 0.0037500369362533092 0.295818030834198
0.6703364253044128 0.11090841144323349 0.2393478900194168
0.8551057577133179 0.0037501000333577394 0.5555435419082642
0.8696772456169128 0.04777371510863304 0.30726125836372375
0.7027269601821899 0.10814311355352402 0.0037500173784792423
0.07238758355379105 0.04552549868822098 0.22269323468208313
0.8159964680671692 0.06864921748638153 0.05169050022959709
0.3920988440513611 0.12951378524303436 0.022377319633960724
0.8443644642829895 0.12558229267597198 0.08962123095989227
0.5769413709640503 0.012486832216382027 0.0332949236035347
0.286697119474411 0.10569463670253754 0.2154371738433838
0.08952634781599045 0.033438000828027725 0.1305650770664215
0.1417853981256485 0.09715159982442856 0.1162438616156578
0.314317524433136 0.15049920976161957 0.12808363139629364
0.3924160897731781 0.012136237695813179 0.019242625683546066
0.2549203038215637 0.028198495507240295 0.2514430582523346
0.36919939517974854 0.003750234143808484 0.6071304082870483
0.2542368769645691 0.175082728266716 0.058211199939250946
0.22966530919075012 0.1338193416595459 0.09604523330926895
0.3378043472766876 0.2045312374830246 0.04828193411231041
0.1949101984500885 0.003750066738575697 0.3771202266216278
0.3510357737541199 0.01324843056499958 0.14503955841064453
0.9774419069290161 0.003750146832317114 0.2405567616224289
0.1305621862411499 0.08712922781705856 0.1611529290676117
0.9798113703727722 0.051252562552690506 0.15924005210399628
0.8678080439567566 0.2522154450416565 0.12664894759655
0.3089870512485504 0.03310670331120491 0.14792802929878235
0.8221168518066406 0.2461611032485962 0.0320446640253067
0.25823861360549927 0.31276801228523254 0.0037501617334783077
0.8309146761894226 0.10574407875537872 0.035461317747831345
0.45336732268333435 0.02798057720065117 0.08864133059978485
0.3186715841293335 0.06072099134325981 0.35800081491470337
0.26516473293304443 0.07516784965991974 0.2960450053215027
0.3173634707927704 0.043149158358573914 0.3191755414009094
0.20427146553993225 0.11411221325397491 0.2667043209075928
0.19237004220485687 0.2891797423362732 0.022486384958028793
0.38319456577301025 0.10408915579319 0.23259668052196503
0.21437129378318787 0.051088523119688034 0.0037501691840589046
0.003750241594389081 0.1304781585931778 0.041553743183612823
0.20593884587287903 0.46023863554000854 0.005005603656172752
0.6202884912490845 0.09776566922664642 0.24844951927661896
0.5181289911270142 0.019933735951781273 0.2617579400539398
0.3905539810657501 0.029388973489403725 0.2863631248474121
0.5105463862419128 0.3311743140220642 0.08758535981178284
0.946984589099884 0.17106816172599792 0.02391936257481575
0.9704830050468445 0.01549074798822403 0.0037502385675907135
0.9962496757507324 0.14623644948005676 0.11397023499011993
0.4224715232849121 0.02892399951815605 0.14808882772922516
0.19934360682964325 0.04534374922513962 0.23534664511680603
0.5735169649124146 0.08829928934574127 0.055286865681409836
0.36619362235069275 0.02914011850953102 0.13160036504268646
0.35798126459121704 0.3093908429145813 0.1052340641617775
0.1636534184217453 0.003750111907720566 0.18088416755199432
0.4643666744232178 0.00375003251247108 0.44504183530807495
0.09992177784442902 0.015399823896586895 0.15611274540424347
0.2657022178173065 0.030609896406531334 0.08077137917280197
0.01683717593550682 0.03834737092256546 0.15204843878746033
0.32248565554618835 0.17508329451084137 0.09478960186243057
0.40658754110336304 0.16764035820960999 0.11398021876811981
0.3745611310005188 0.31007444858551025 0.033254701644182205
0.2125968486070633 0.003750080708414316 0.23729845881462097
0.3997107148170471 0.23556065559387207 0.06143934652209282
0.5886340737342834 0.019731830805540085 0.36724206805229187
0.5273863673210144 0.23122617602348328 0.055793244391679764
0.9468219876289368 0.0037500797770917416 0.2579956650733948
0.7917708158493042 0.048297218978405 0.12320832163095474
0.981708824634552 0.06866335868835449 0.08207065612077713
0.8934102058410645 0.09657217562198639 0.18913009762763977
0.552528977394104 0.13683095574378967 0.19934947788715363
0.5812526941299438 0.026546429842710495 0.08209989964962006
0.99609375 0.17175748944282532 0.07431890815496445
0.9962494969367981 0.08049432188272476 0.11810388416051865
0.11255242675542831 0.031548891216516495 0.04494457691907883
0.6339443325996399 0.050303976982831955 0.20815825462341309
0.07634884119033813 0.36834779381752014 0.045870281755924225
0.2259691059589386 0.09529070556163788 0.2744041681289673
0.0038592175114899874 0.12845014035701752 0.340956449508667
0.1411263346672058 0.3058481812477112 0.025291547179222107
0.1828920692205429 0.24266016483306885 0.13577207922935486
0.23385503888130188 0.34173503518104553 0.08054667711257935
0.11795219033956528 0.02557978592813015 0.3485221266746521
0.5123037695884705 0.0037500690668821335 0.32997196912765503
0.3764611780643463 0.07204898446798325 0.12580861151218414
0.2525998055934906 0.08611864596605301 0.04896032065153122
0.23224222660064697 0.19591455161571503 0.0037500602193176746
0.3875454366207123 0.0037502304185181856 0.05079871416091919
0.649718165397644 0.03418388590216637 0.2065112143754959
0.8413041234016418 0.014791091904044151 0.026368901133537292
0.4482249617576599 0.06415652483701706 0.08851693570613861
0.9661561846733093 0.05043132230639458 0.05273649841547012
0.957017719745636 0.017585834488272667 0.17668373882770538
0.9499157667160034 0.11327950656414032 0.12355740368366241
0.7559002041816711 0.068916454911232 0.07152873277664185
0.6863771677017212 0.13673850893974304 0.1877526491880417
0.16347049176692963 0.04591485112905502 0.25052890181541443
0.3991926610469818 0.08426820486783981 0.37123438715934753
0.1026422381401062 0.029668312519788742 0.4733189642429352
0.2818448543548584 0.03354126960039139 0.4672977328300476
0.6679131984710693 0.03886881098151207 0.3370268940925598
0.2419886589050293 0.4486141800880432 0.09232030063867569
0.4488294720649719 0.15823952853679657 0.07180598378181458
0.23306064307689667 0.05177571624517441 0.02306317165493965
0.5557206869125366 0.061528485268354416 0.20225515961647034
0.44384655356407166 0.03791861981153488 0.363077312707901
0.5259193778038025 0.0980299636721611 0.15535767376422882
0.625019907951355 0.21053048968315125 0.026825863867998123
0.607200026512146 0.19002769887447357 0.02365924045443535
0.6980456709861755 0.04893919825553894 0.26259490847587585
0.161849245429039 0.051272641867399216 0.06266625225543976
0.5403696298599243 0.017836149781942368 0.09608835726976395
0.637247622013092 0.03592883422970772 0.22062523663043976
0.8692847490310669 0.1847490668296814 0.02253204770386219
0.4251655638217926 0.00375003251247108 0.08807731419801712
0.8757163882255554 0.09978102892637253 0.03482595831155777
0.6052114367485046 0.15812522172927856 0.003750172909349203
0.4036092758178711 0.01716705784201622 0.5104585886001587
0.1357090175151825 0.033006779849529266 0.3975813686847687
0.10271479189395905 0.025377998128533363 0.003750048577785492
0.17220036685466766 0.0037500658072531223 0.1472751796245575
0.6366762518882751 0.0431002713739872 0.32565468549728394
0.09933726489543915 0.003750057425349951 0.5103988647460938
0.3683522939682007 0.0717858299612999 0.1779811978340149
0.382574200630188 0.24691879749298096 0.014086197130382061
0.2414136379957199 0.053539175540208817 0.1130361407995224
0.6072660088539124 0.15806232392787933 0.09810291230678558
0.2746460735797882 0.05699364095926285 0.08731809258460999
0.31639528274536133 0.14295029640197754 0.19975754618644714
0.8699094653129578 0.03483619540929794 0.3726367652416229
0.26511499285697937 0.03910180553793907 0.018782420083880424
0.6803845167160034 0.03502355143427849 0.2247428148984909
0.7402878999710083 0.016049863770604134 0.16634760797023773
0.268949955701828 0.05819383263587952 0.2105904519557953
0.9063388705253601 0.09706349670886993 0.16198715567588806
0.7778068780899048 0.10083132982254028 0.021914664655923843
0.8778017163276672 0.07896464318037033 0.0037500294856727123
0.9183400869369507 0.15033404529094696 0.07403337955474854
0.3317219614982605 0.04799570143222809 0.48119044303894043
0.0037501342594623566 0.0037501424085348845 0.3717530071735382
0.10073035955429077 0.04978098347783089 0.12487286329269409
0.15146133303642273 0.01602066308259964 0.17614689469337463
0.1050105094909668 0.5011966228485107 0.013214318081736565
0.15139402449131012 0.2095896452665329 0.0037500732578337193
0.19742751121520996 0.03793035447597504 0.5599080324172974
0.08669696003198624 0.06176919490098953 0.1000341922044754
0.26578032970428467 0.0037500548642128706 0.5084193348884583
0.2186034470796585 0.07952974736690521 0.08199146389961243
0.298078715801239 0.03123576007783413 0.22386078536510468
0.7164929509162903 0.2040141522884369 0.0037501323968172073
0.6175916790962219 0.14463737607002258 0.15848568081855774
0.4121124744415283 0.09030303359031677 0.22580674290657043
0.3731180727481842 0.1686113476753235 0.040382467210292816
0.8713659048080444 0.0037500381004065275 0.2510877251625061
0.9962496757507324 0.02211008593440056 0.36416521668434143
0.95062255859375 0.03335830196738243 0.1695682555437088
0.7034276723861694 0.04387567192316055 0.1372007429599762
0.17470110952854156 0.17181521654129028 0.03626393526792526
0.5813076496124268 0.0037501591723412275 0.01998649537563324
0.8507920503616333 0.2687625586986542 0.016651848331093788
0.06822900474071503 0.04387640208005905 0.0037502243649214506
0.11494018137454987 0.003750121220946312 0.16250871121883392
0.3694393038749695 0.5815960764884949 0.013887636363506317
0.3614098131656647 0.10677142441272736 0.26343560218811035
0.03621023893356323 0.12979094684123993 0.03964924067258835
0.046646155416965485 0.00375005672685802 0.29722487926483154
0.014927391894161701 0.11570099741220474 0.17994500696659088
0.5304309725761414 0.16774259507656097 0.0228480976074934
0.31114330887794495 0.05762522667646408 0.0614110603928566
0.17346632480621338 0.01409207098186016 0.23729586601257324
0.636587917804718 0.12040010839700699 0.08470828831195831
0.8929966688156128 0.06467331200838089 0.12126265466213226
0.6290456056594849 0.0037502069026231766 0.22003085911273956
0.7638354897499084 0.01755661331117153 0.17373907566070557
0.8879836797714233 0.021088819950819016 0.24154500663280487
0.619127094745636 0.32380086183547974 0.003750105854123831
0.9962495565414429 0.03953957185149193 0.10121461004018784
0.3978732228279114 0.07508282363414764 0.17330048978328705
0.7873039841651917 0.07419874519109726 0.09754647314548492
0.3925868272781372 0.07827098667621613 0.018997179344296455
0.10442247241735458 0.0037500294856727123 0.06705223023891449
0.15415087342262268 0.16066984832286835 0.0037500460166484118
0.7216774225234985 0.01457262597978115 0.12142155319452286
0.18103580176830292 0.0037501726765185595 0.08914002776145935
0.1490202099084854 0.04766552150249481 0.3944636285305023
0.34620559215545654 0.07288946956396103 0.3163490891456604
0.3084913194179535 0.07352153211832047 0.2432965487241745
0.082794688642025 0.19587168097496033 0.0037501926999539137
0.46770963072776794 0.09181971848011017 0.12343353033065796
0.5841619968414307 0.10948095470666885 0.17702825367450714
0.003750105621293187 0.003750099567696452 0.2456219643354416
0.11868945509195328 0.12851761281490326 0.1179373487830162
0.8216900825500488 0.08266212046146393 0.13702788949012756
0.6282750368118286 0.06621240079402924 0.24050793051719666
0.7079558968544006 0.20256547629833221 0.046153225004673004
0.8864461779594421 0.003750178264454007 0.28598061203956604
0.7227893471717834 0.14019906520843506 0.06892210990190506
0.1939489245414734 0.11816881597042084 0.12999045848846436
0.863245964050293 0.0037500120233744383 0.5019895434379578
0.3085699677467346 0.0037501095794141293 0.30914294719696045
0.8287623524665833 0.0037501000333577394 0.06866909563541412
0.0037501570768654346 0.03989306092262268 0.4969342350959778
0.253248393535614 0.08955780416727066 0.3009713888168335
0.33725911378860474 0.057344429194927216 0.35686007142066956
0.4204183518886566 0.020611677318811417 0.5151654481887817
0.5380262136459351 0.03636136278510094 0.5116128921508789
0.21341845393180847 0.0380309522151947 0.5734549760818481
0.0037502492778003216 0.21130485832691193 0.0037501449696719646
0.0037501025944948196 0.030704403296113014 0.5437694191932678
0.15766951441764832 0.026921212673187256 0.29820123314857483
0.28091296553611755 0.13067574799060822 0.01886446587741375
0.2969784140586853 0.0905725434422493 0.07631729543209076
0.769498884677887 0.02425455115735531 0.38266149163246155
0.8876557350158691 0.22815874218940735 0.003781300038099289
0.33387890458106995 0.0037501328624784946 0.27110326290130615
0.7257421612739563 0.033664520829916 0.03921542316675186
0.8002123832702637 0.003750202478840947 0.3043001592159271
0.9672937393188477 0.08832252770662308 0.12618060410022736
0.8581486940383911 0.056912653148174286 0.0037501626648008823
0.3788219392299652 0.1200132742524147 0.14802633225917816
0.3379524052143097 0.2675327956676483 0.042078714817762375
0.21691004931926727 0.0972493439912796 0.023587297648191452
0.8456342816352844 0.0037500944454222918 0.4206063747406006
0.7403723001480103 0.11918358504772186 0.03929663076996803
0.0696900486946106 0.2892022430896759 0.036116864532232285
0.31871575117111206 0.06816985458135605 0.22768549621105194
0.21141943335533142 0.04490949586033821 0.36990535259246826
0.03324659541249275 0.08674367517232895 0.17307868599891663
0.0164756141602993 0.49302148818969727 0.015219651162624359
0.2442772388458252 0.030647914856672287 0.11180244386196136
0.21733573079109192 0.0037500124890357256 0.5131718516349792
0.037911489605903625 0.0644015222787857 0.3080947697162628
0.05574106425046921 0.0037501803599298 0.003750234143808484
0.5353039503097534 0.05418020486831665 0.3472481071949005
0.8019634485244751 0.1228581890463829 0.13362565636634827
0.8013097047805786 0.021711628884077072 0.36434057354927063
0.9719031453132629 0.0037500537000596523 0.4194544851779938
0.8631927371025085 0.32140377163887024 0.016281448304653168
0.11156398057937622 0.06457258760929108 0.1255919635295868
0.9793039560317993 0.08939807116985321 0.11076132208108902
0.7945153117179871 0.11749676614999771 0.021711615845561028
0.43810170888900757 0.0374397374689579 0.05791724473237991
0.38734591007232666 0.040468621999025345 0.019361991435289383
0.10931499302387238 0.027409624308347702 0.4538175165653229
0.540697455406189 0.10164721310138702 0.29238295555114746
0.6880830526351929 0.0627967119216919 0.21119602024555206
0.46040382981300354 0.003750135423615575 0.5565513372421265
0.025153834372758865 0.05338384956121445 0.48147210478782654
0.25229495763778687 0.1309681385755539 0.22535988688468933
0.6443541646003723 0.0037500772159546614 0.0037502225022763014
0.30156609416007996 0.29010218381881714 0.017735309898853302
0.5834568738937378 0.016651323065161705 0.19541765749454498
0.08270485699176788 0.0037500341422855854 0.13027425110340118
0.5266468524932861 0.017476806417107582 0.34981805086135864
0.13331668078899384 0.003750137286260724 0.5366327166557312
0.7296818494796753 0.003754217876121402 0.6071302890777588
0.8685285449028015 0.024106021970510483 0.3004709482192993
0.704136312007904 0.05191318318247795 0.34318190813064575
0.9962495565414429 0.19192329049110413 0.0037501200567930937
0.482074499130249 0.1632031947374344 0.11565647274255753
0.9695056676864624 0.14582094550132751 0.07078726589679718
0.45675987005233765 0.04760216549038887 0.288703978061676
0.9682514071464539 0.015247434377670288 0.08811333775520325
0.7766156196594238 0.06159628555178642 0.09521711617708206
0.762093722820282 0.0037508257664740086 0.6071304082870483
0.41126251220703125 0.16562743484973907 0.029307153075933456
0.31550320982933044 0.36947306990623474 0.0330212339758873
0.19777609407901764 0.015293313190340996 0.1461324393749237
0.1869516372680664 0.09477508813142776 0.30545932054519653
0.0037501801270991564 0.04872164875268936 0.19310197234153748
0.2278701514005661 0.021010596305131912 0.4094781279563904
0.40334075689315796 0.2726108431816101 0.024815715849399567
0.6579493284225464 0.0037501410115510225 0.43362003564834595
0.1620057076215744 0.45433416962623596 0.013646332547068596
0.696050763130188 0.023794349282979965 0.4910639226436615
0.6051276326179504 0.0331115685403347 0.4486062526702881
0.6472409963607788 0.019017640501260757 0.5912516713142395
0.5939993262290955 0.01827150583267212 0.2821287214756012
0.8745888471603394 0.08696658909320831 0.021591447293758392
0.4196403920650482 0.10368503630161285 0.11679793894290924
0.9174093008041382 0.08816228806972504 0.23465628921985626
0.3362275958061218 0.029082953929901123 0.22269198298454285
0.47121015191078186 0.003750075353309512 0.26528018712997437
0.299495130777359 0.12128812074661255 0.17081117630004883
0.5749961733818054 0.003750202478840947 0.39278995990753174
0.8017715215682983 0.05007041245698929 0.06781156361103058
0.40082621574401855 0.003750122617930174 0.018858429044485092
0.16616711020469666 0.0037500583566725254 0.5364667177200317
0.22127974033355713 0.03560608625411987 0.06228407472372055
0.04165516048669815 0.08626428991556168 0.06966724991798401
0.19133225083351135 0.1483096182346344 0.13631382584571838
0.33700698614120483 0.026054929941892624 0.34222930669784546
0.02492016926407814 0.15127134323120117 0.0037500462494790554
0.3246876299381256 0.036224331706762314 0.09531377255916595
0.10056118667125702 0.01542268879711628 0.13588394224643707
0.5731626749038696 0.06210643798112869 0.35568082332611084
0.5005620718002319 0.03548586741089821 0.034152306616306305
0.2082703560590744 0.1591574251651764 0.003750224132090807
0.8343906402587891 0.04423629492521286 0.08573843538761139
0.4770053029060364 0.36121219396591187 0.0626048892736435
0.8396745920181274 0.11070489883422852 0.10026751458644867
0.3846272826194763 0.02439349703490734 0.10436991602182388
0.4106014370918274 0.013100746087729931 0.018530987203121185
0.9278756380081177 0.09825771301984787 0.21905747056007385
0.31216147541999817 0.0037501819897443056 0.20700721442699432
0.11076494306325912 0.03822916001081467 0.07141747325658798
0.24772019684314728 0.0037501330953091383 0.14835235476493835
0.41493040323257446 0.020470766350626945 0.3988493084907532
0.9303733706474304 0.18021783232688904 0.018902486190199852
0.26262980699539185 0.0037501275073736906 0.39578336477279663
0.08319924026727676 0.5311676263809204 0.11019055545330048
0.32225853204727173 0.054866205900907516 0.47024425864219666
0.41687434911727905 0.045979730784893036 0.2934097945690155
0.24400460720062256 0.07238456606864929 0.4140063226222992
0.2183409184217453 0.013896025717258453 0.30608025193214417
0.5806959271430969 0.0037501465994864702 0.5008975267410278
0.420501708984375 0.13102181255817413 0.2271948605775833
0.8476862907409668 0.07241450995206833 0.09069850295782089
0.7169564962387085 0.21144473552703857 0.07108435034751892
0.4780532419681549 0.00375005672685802 0.23396781086921692
0.8348053097724915 0.0037501580081880093 0.31546249985694885
0.9659435153007507 0.0037502076011151075 0.5558339953422546
0.48745283484458923 0.018578169867396355 0.0596645288169384
0.6318384408950806 0.15954849123954773 0.12890782952308655
0.43364524841308594 0.35955050587654114 0.12698619067668915
0.8723170161247253 0.003750050440430641 0.04076341539621353
0.14570152759552002 0.04423725977540016 0.23260442912578583
0.9587739706039429 0.053723543882369995 0.036343205720186234
0.23484638333320618 0.034598592668771744 0.25963589549064636
0.45966729521751404 0.29181569814682007 0.10951562225818634
0.3514363467693329 0.015147072263062 0.16338692605495453
0.03354262560606003 0.003750006901100278 0.2787884473800659
0.6123047471046448 0.08331750333309174 0.10317058861255646
0.1955537050962448 0.03985695168375969 0.3040579557418823
0.36324864625930786 0.07656611502170563 0.01795056276023388
0.5783752799034119 0.04104022681713104 0.09325860440731049
0.24057674407958984 0.08274110406637192 0.2713479995727539
0.27579882740974426 0.1399765908718109 0.1399177610874176
0.3791816830635071 0.12025491893291473 0.2043856382369995
0.5713533163070679 0.1559605449438095 0.0037500779144465923
0.6304095983505249 0.0037500672042369843 0.13866661489009857
0.8738635182380676 0.05636528879404068 0.03568089008331299
0.003750241594389081 0.17231342196464539 0.02406987175345421
0.8326109647750854 0.17883442342281342 0.14102503657341003
0.6182461977005005 0.06819064915180206 0.27710431814193726
0.6153668165206909 0.30782872438430786 0.0037502050399780273
0.49073901772499084 0.10151652246713638 0.24336473643779755
0.6637858748435974 0.07085257023572922 0.10744208097457886
0.647276759147644 0.016225432977080345 0.15778331458568573
0.03885330259799957 0.0037500704638659954 0.3853141963481903
0.5586336851119995 0.0037500374019145966 0.2466779500246048
0.1046827882528305 0.06325719505548477 0.040928252041339874
0.003750008996576071 0.0037501882761716843 0.06901384890079498
0.037736956030130386 0.0323709174990654 0.34246161580085754
0.28727608919143677 0.003750098869204521 0.5405040383338928
0.9174320101737976 0.0360274612903595 0.02014397829771042
0.19746211171150208 0.0037502460181713104 0.26943284273147583
0.5695106983184814 0.05752284452319145 0.09196273982524872
0.30145010352134705 0.10766242444515228 0.02373252622783184
0.1319652646780014 0.01540258340537548 0.34759432077407837
0.8229647874832153 0.0037500462494790554 0.0037501708138734102
0.8605931997299194 0.03354034200310707 0.20552285015583038
0.5335928797721863 0.013767505995929241 0.0782473012804985
0.3473358750343323 0.23831817507743835 0.2573639750480652
0.9728180766105652 0.003750147297978401 0.003750063944607973
0.5795410871505737 0.02349749766290188 0.021060651168227196
0.5045856237411499 0.12189982086420059 0.22847890853881836
0.7243539094924927 0.08970470726490021 0.256855309009552
0.9816048741340637 0.04369371756911278 0.0358378067612648
0.43645548820495605 0.06705331802368164 0.3339012563228607
0.03621486946940422 0.08592723309993744 0.1508537381887436
0.34593361616134644 0.04888797178864479 0.4701835513114929
0.8088991045951843 0.08276598155498505 0.20928597450256348
0.27777743339538574 0.028963666409254074 0.20259122550487518
0.22185607254505157 0.003750203875824809 0.2511778175830841
0.5307938456535339 0.047511447221040726 0.23539407551288605
0.6758235692977905 0.024150080978870392 0.11149571090936661
0.20501860976219177 0.09050796180963516 0.29597702622413635
0.9686460494995117 0.0037500541657209396 0.05325732380151749
0.12089566141366959 0.11671797186136246 0.08683699369430542
0.9128772020339966 0.04219146817922592 0.08078274875879288
0.35862061381340027 0.003750080242753029 0.07552184164524078
0.4613794684410095 0.028677653521299362 0.003750199917703867
0.7802876830101013 0.03462214767932892 0.039897672832012177
0.7643638849258423 0.03209090977907181 0.21744267642498016
0.7666289806365967 0.052250511944293976 0.06959925591945648
0.4691234529018402 0.0037500530015677214 0.05561002343893051
0.48290324211120605 0.3109873831272125 0.07566099613904953
0.701276957988739 0.2677324414253235 0.05332260578870773
0.5082504153251648 0.015322473831474781 0.02209954336285591
0.2471093237400055 0.01685073785483837 0.2862369120121002
0.20625808835029602 0.12017476558685303 0.22169451415538788
0.11766017973423004 0.04118921607732773 0.20216770470142365
0.1099182516336441 0.041541844606399536 0.34977471828460693
0.06050965189933777 0.003750211326405406 0.45045584440231323
0.0037502162158489227 0.003750033210963011 0.3558453917503357
0.1669156402349472 0.1547810137271881 0.03512126952409744
0.2703038156032562 0.14244714379310608 0.06843803822994232
0.2515868544578552 0.003750220639631152 0.08717717230319977
0.5280485153198242 0.17541636526584625 0.003750110510736704
0.7649399042129517 0.0037500031758099794 0.4696110188961029
0.32622766494750977 0.05692460015416145 0.12034337222576141
0.17905475199222565 0.0037501435726881027 0.44156137108802795
0.5439348220825195 0.003750086296349764 0.07087074220180511
0.7136150598526001 0.294119656085968 0.05243487283587456
0.6619427800178528 0.028301939368247986 0.12306439876556396
0.8820258378982544 0.0037502374034374952 0.2684367895126343
0.6781913042068481 0.05566269904375076 0.07191181927919388
0.6400901079177856 0.15878143906593323 0.0037502204068005085
0.8222947120666504 0.10407467931509018 0.0037500199396163225
0.663371205329895 0.09774623811244965 0.16775287687778473
0.5161798596382141 0.0793132334947586 0.0037500127218663692
0.19124703109264374 0.003750166390091181 0.32644447684288025
0.7859629392623901 0.0037500462494790554 0.40303000807762146
0.16535596549510956 0.05542377382516861 0.21190676093101501
0.2628268599510193 0.015547560527920723 0.2786133289337158
0.018732884898781776 0.03478197380900383 0.2737020254135132
0.11005930602550507 0.08069826662540436 0.15248951315879822
0.14164520800113678 0.003750032978132367 0.3268672823905945
0.5557354092597961 0.0037501160986721516 0.0037502211052924395
0.1113123744726181 0.0037502471823245287 0.45370393991470337
0.21621525287628174 0.03303559124469757 0.07946328818798065
0.4853050708770752 0.17622815072536469 0.17425361275672913
0.08955935388803482 0.0037500369362533092 0.47394171357154846
0.7138355374336243 0.014543825760483742 0.0720026046037674
0.6319773197174072 0.2880682945251465 0.02866407297551632
0.8902503252029419 0.03937637060880661 0.0943424254655838
0.3281889259815216 0.12330824136734009 0.019781198352575302
0.6807025074958801 0.06768088042736053 0.023025989532470703
0.7061455249786377 0.05851743370294571 0.14307944476604462
0.36557209491729736 0.13902699947357178 0.2311207354068756
0.003750236239284277 0.07757151126861572 0.11716220527887344
0.09265447407960892 0.07994058728218079 0.31339317560195923
0.2694963216781616 0.08233984559774399 0.3710483908653259
0.19039566814899445 0.03337635472416878 0.016713373363018036
0.461416631937027 0.25441911816596985 0.06150708720088005
0.17589248716831207 0.08227162808179855 0.3563780188560486
0.45820140838623047 0.011921376921236515 0.18195697665214539
0.3100491166114807 0.4068187177181244 0.07676279544830322
0.4099713861942291 0.072467140853405 0.01847435161471367
0.10676436126232147 0.13220086693763733 0.08879873156547546
0.39508211612701416 0.101425901055336 0.09015730768442154
0.8217167854309082 0.003750039730221033 0.4214358925819397
0.5184963345527649 0.0683307871222496 0.25993621349334717
0.9634587168693542 0.0037501207552850246 0.23090636730194092
0.9145295023918152 0.03289124742150307 0.037198085337877274
0.5402945280075073 0.3972359299659729 0.004722691606730223
0.7148429751396179 0.06827086955308914 0.09444041550159454
0.4329349398612976 0.003750120522454381 0.0523541085422039
0.8615201115608215 0.0037502453196793795 0.3052012026309967
0.5852370262145996 0.12537361681461334 0.06545153260231018
0.8029510378837585 0.04661611467599869 0.14641235768795013
0.7267375588417053 0.27271348237991333 0.005513607524335384
0.07592268288135529 0.018455354496836662 0.42203283309936523
0.42034536600112915 0.11411311477422714 0.20158818364143372
0.5532558560371399 0.0322236567735672 0.1326882243156433
0.1838897466659546 0.04241364821791649 0.0037501894403249025
0.1926269233226776 0.040709733963012695 0.28558066487312317
0.5397917032241821 0.05629667639732361 0.4214862883090973
0.4647704064846039 0.01259109191596508 0.003750214818865061
0.16346612572669983 0.23708179593086243 0.025097915902733803
0.12155314534902573 0.06574901193380356 0.08048881590366364
0.8545839190483093 0.0738237053155899 0.2342923879623413
0.40291285514831543 0.05765267089009285 0.44151967763900757
0.9962495565414429 0.01945338025689125 0.571570873260498
0.3220044672489166 0.0037500851321965456 0.07339178025722504
0.981674313545227 0.01845083013176918 0.13874295353889465
0.9856246709823608 0.07583868503570557 0.24359674751758575
0.3662928342819214 0.015351952984929085 0.2060469388961792
0.5227745175361633 0.17149129509925842 0.18504086136817932
0.9490734934806824 0.05469416454434395 0.07067076116800308
0.39882132411003113 0.092739537358284 0.1772342324256897
0.9962494969367981 0.028921056538820267 0.3377193510532379
0.8968057632446289 0.056685108691453934 0.04728329926729202
0.4296339154243469 0.19653278589248657 0.098062664270401
0.2306073158979416 0.036598701030015945 0.3938893675804138
0.009383166208863258 0.41423577070236206 0.10530196130275726
0.12988241016864777 0.26556819677352905 0.0037501349579542875
0.29573696851730347 0.18183252215385437 0.044577326625585556
0.003750151488929987 0.003750235540792346 0.2595711350440979
0.30075323581695557 0.057337068021297455 0.5039443969726562
0.27936485409736633 0.18838566541671753 0.04623465985059738
0.3092139661312103 0.039721306413412094 0.2364683449268341
0.1466594934463501 0.08734174072742462 0.27364981174468994
0.3254169523715973 0.09017262607812881 0.27408117055892944
0.3586818277835846 0.06372891366481781 0.2069719135761261
0.5807735919952393 0.2925702929496765 0.08453305065631866
0.595564603805542 0.14083778858184814 0.06285564601421356
0.5241283774375916 0.15500833094120026 0.0794849842786789
0.945034384727478 0.17677316069602966 0.049823738634586334
0.43717026710510254 0.07545308023691177 0.0937993973493576
0.9184439778327942 0.042667098343372345 0.059731125831604004
0.9962494969367981 0.0037500981707125902 0.2905433773994446
0.9822221994400024 0.05556988716125488 0.09428729861974716
0.8211054801940918 0.3082367777824402 0.07831843197345734
0.01626509428024292 0.02806720696389675 0.19959987699985504
0.1579761803150177 0.11670982837677002 0.00375019246712327
0.0037501039914786816 0.033254481852054596 0.2634275257587433
0.34201592206954956 0.04790652170777321 0.017671339213848114
0.1057395190000534 0.11486929655075073 0.04655950888991356
0.028591910377144814 0.015140819363296032 0.34221571683883667
0.3958111107349396 0.08708825707435608 0.28663170337677
0.07635517418384552 0.019880037754774094 0.038587428629398346
0.1799999624490738 0.386306494474411 0.22719192504882812
0.24094386398792267 0.32237282395362854 0.007891412824392319
0.5230353474617004 0.07534851133823395 0.20465585589408875
0.2301478385925293 0.21807590126991272 0.14513477683067322
0.8099393844604492 0.00375003251247108 0.2181466519832611
0.9555060267448425 0.16613997519016266 0.0037502467166632414
0.9962494969367981 0.0399521179497242 0.28580719232559204
0.2708733081817627 0.0682002604007721 0.021932194009423256
0.2483808547258377 0.10978873819112778 0.1313793957233429
0.6212460994720459 0.018902607262134552 0.2661817669868469
0.4007238447666168 0.05894842743873596 0.24032409489154816
0.26470428705215454 0.0962747111916542 0.088019959628582
0.8627946972846985 0.153298482298851 0.0905461460351944
0.5723162293434143 0.31264883279800415 0.09912219643592834
0.08904697000980377 0.020626435056328773 0.4976585805416107
0.04127032309770584 0.016118034720420837 0.4332413673400879
0.10394489765167236 0.020742405205965042 0.2717312276363373
0.6841834187507629 0.021468622609972954 0.3920745253562927
0.031306520104408264 0.0037500467151403427 0.09898809343576431
0.19934207201004028 0.003750002011656761 0.4901529848575592
0.36778461933135986 0.06139267608523369 0.2336486279964447
0.4057890474796295 0.07162581384181976 0.2221052199602127
0.3785824179649353 0.07361955940723419 0.2535141110420227
0.373724102973938 0.08739118278026581 0.1877247542142868
0.7192939519882202 0.003750034375116229 0.2749544680118561
0.5478975772857666 0.08298994600772858 0.0196126326918602
0.9044016003608704 0.09514541923999786 0.1236782893538475
0.6757981777191162 0.08110690861940384 0.10242937505245209
0.8533995747566223 0.017514972016215324 0.21168527007102966
0.5777454376220703 0.08875790983438492 0.09408211708068848
0.7950090169906616 0.035067129880189896 0.10769957304000854
0.4260072112083435 0.08250461518764496 0.02165544405579567
0.9825712442398071 0.0037501559127122164 0.22612592577934265
0.5144820213317871 0.13378438353538513 0.2371891736984253
0.19833534955978394 0.028290729969739914 0.003750154050067067
0.5734142065048218 0.0212891586124897 0.04633834585547447
0.09044495970010757 0.07414849102497101 0.24667155742645264
0.2321820706129074 0.04958956316113472 0.40501341223716736
0.2977844178676605 0.041559718549251556 0.5341925024986267
0.3508971333503723 0.08076001703739166 0.37428849935531616
0.2228536307811737 0.3190600275993347 0.22364464402198792
0.32051628828048706 0.3820090889930725 0.06115405634045601
0.2328895628452301 0.09619799256324768 0.06819681078195572
0.3235844075679779 0.38295307755470276 0.0167708620429039
0.21550433337688446 0.0037502492778003216 0.21472808718681335
0.6001101732254028 0.1727285236120224 0.04409509152173996
0.5538425445556641 0.011876584030687809 0.08649160712957382
0.6441868543624878 0.06636200100183487 0.22005951404571533
0.35514000058174133 0.2745382487773895 0.22461362183094025
0.9962495565414429 0.09213612228631973 0.13085989654064178
0.8027727007865906 0.0037502325139939785 0.1109636202454567
0.37631553411483765 0.3533560633659363 0.1530134081840515
0.9962495565414429 0.03525311499834061 0.2700515389442444
0.19673612713813782 0.09566295146942139 0.10558347404003143
0.3820166289806366 0.003750177565962076 0.35283586382865906
0.12474541366100311 0.01487440150231123 0.12660083174705505
0.3470761477947235 0.0037500113248825073 0.4749998450279236
0.2787424921989441 0.2814907431602478 0.033153049647808075
0.2875916659832001 0.011111965402960777 0.08793459832668304
0.33301711082458496 0.04035986214876175 0.35376468300819397
0.43699654936790466 0.15945811569690704 0.12717142701148987
0.15713152289390564 0.08217193186283112 0.11604653298854828
0.09560911357402802 0.09497151523828506 0.11072037369012833
0.5015571713447571 0.052359044551849365 0.022709667682647705
0.037775956094264984 0.08071880042552948 0.2940768599510193
0.19462186098098755 0.055756885558366776 0.18378692865371704
0.07495050132274628 0.07990819215774536 0.02566368505358696
0.0037501552142202854 0.08944179117679596 0.15298205614089966
0.6874542236328125 0.1089174747467041 0.11320009082555771
0.7720614671707153 0.1038319319486618 0.20246672630310059
0.5272361636161804 0.06732840836048126 0.06895627081394196
0.9962496757507324 0.11943421512842178 0.15777578949928284
0.32836195826530457 0.13730034232139587 0.06848248839378357
0.9962495565414429 0.020330393686890602 0.2802509665489197
0.3553168773651123 0.03220858424901962 0.0788203626871109
0.36909186840057373 0.0548606738448143 0.19455216825008392
0.5389755964279175 0.003750202478840947 0.08693245053291321
0.8732808232307434 0.03188275918364525 0.11422548443078995
0.017910059541463852 0.020159492269158363 0.18407168984413147
0.0037501025944948196 0.016029026359319687 0.5383909940719604
0.06653743237257004 0.148076593875885 0.020564865320920944
0.4922131896018982 0.01901313103735447 0.3571559190750122
0.13385584950447083 0.014363792724907398 0.22810117900371552
0.03583430498838425 0.14103811979293823 0.0068151094019412994
0.30245834589004517 0.19670136272907257 0.0319315567612648
0.6279023289680481 0.12793180346488953 0.038617171347141266
0.25410059094429016 0.16827824711799622 0.01912131905555725
0.3863261342048645 0.05645233392715454 0.09123879671096802
0.37992361187934875 0.09571007639169693 0.16880181431770325
0.4059360921382904 0.1486760824918747 0.02027864381670952
0.7231738567352295 0.045145563781261444 0.34308627247810364
0.7172559499740601 0.0037501335609704256 0.0446656197309494
0.8287068605422974 0.0037501100450754166 0.24365274608135223
0.6478533744812012 0.1750723421573639 0.0037500481121242046
0.5057247877120972 0.06915538758039474 0.02030530944466591
0.9369457960128784 0.16497400403022766 0.003750134725123644
0.31465214490890503 0.05025770515203476 0.14889712631702423
0.361020565032959 0.003750220639631152 0.3977040648460388
0.14301644265651703 0.10735403001308441 0.07736872881650925
0.29152345657348633 0.09210346639156342 0.34366488456726074
0.17923793196678162 0.06357832252979279 0.3941114544868469
0.17297333478927612 0.14406593143939972 0.09301809966564178
0.1867043375968933 0.4810248017311096 0.04590096324682236
0.03177016228437424 0.48233532905578613 0.10047085583209991
0.11357474327087402 0.003750105854123831 0.13201691210269928
0.38598883152008057 0.03612072020769119 0.5558431148529053
0.5729783177375793 0.10100536048412323 0.0424673967063427
0.7341792583465576 0.1912209689617157 0.03279981389641762
0.6464124917984009 0.04963470622897148 0.1681089848279953
0.408333957195282 0.04462558403611183 0.03430499508976936
0.6571580171585083 0.10159162431955338 0.189938485622406
0.5077711939811707 0.15525779128074646 0.08931263536214828
0.9645171165466309 0.1396920084953308 0.0848548486828804
0.9330481290817261 0.024923767894506454 0.4129769206047058
0.5201195478439331 0.019399624317884445 0.2926158010959625
0.9941069483757019 0.23774723708629608 0.14003443717956543
0.7593703866004944 0.010725283995270729 0.02136477455496788
0.5446099638938904 0.17855902016162872 0.24072375893592834
0.262226402759552 0.03015892580151558 0.1175444945693016
0.38719162344932556 0.08766503632068634 0.24607494473457336
0.2753058075904846 0.07542183250188828 0.39346790313720703
0.18423829972743988 0.021761346608400345 0.5088279247283936
0.10390035808086395 0.032893575727939606 0.19169758260250092
0.016009289771318436 0.11709696054458618 0.39676958322525024
0.7261399030685425 0.003750073490664363 0.5655473470687866
0.022203339263796806 0.10431639105081558 0.21410605311393738
0.4263990819454193 0.020702069625258446 0.5538582801818848
0.003750056494027376 0.06914758682250977 0.4196959435939789
0.24421899020671844 0.03955875709652901 0.5476715564727783
0.6255252957344055 0.03420444577932358 0.35504263639450073
0.7354468107223511 0.3487057089805603 0.01078327838331461
0.7120723128318787 0.0037501384504139423 0.29238802194595337
0.6410882472991943 0.00375003507360816 0.2067825049161911
0.8627092242240906 0.04866882041096687 0.17541822791099548
0.9660673141479492 0.0781555324792862 0.07303960621356964
0.9962494969367981 0.15617750585079193 0.003750092815607786
0.5536056756973267 0.016573013737797737 0.14463484287261963
0.34142443537712097 0.41091299057006836 0.0037502162158489227
0.28200215101242065 0.031568314880132675 0.17074814438819885
0.15804815292358398 0.046179261058568954 0.4589904248714447
0.0038656897377222776 0.05002259463071823 0.5749661922454834
0.10080387443304062 0.0037500285543501377 0.419144868850708
0.018388453871011734 0.020897340029478073 0.5507749319076538
0.24504020810127258 0.36929404735565186 0.03195210546255112
0.032579340040683746 0.08468391001224518 0.0037500180769711733
0.6346800327301025 0.06467454135417938 0.325080007314682
0.1242152601480484 0.09516209363937378 0.08939379453659058
0.33355072140693665 0.03078378364443779 0.30785587430000305
0.5043588280677795 0.27996060252189636 0.05959569662809372
0.6552417278289795 0.23779626190662384 0.035605303943157196
0.389925092458725 0.30257993936538696 0.004708335734903812
0.6087588667869568 0.2965729236602783 0.07536247372627258
0.7984406352043152 0.09815575927495956 0.1819639354944229
0.7400364875793457 0.05159328132867813 0.19553789496421814
0.7900571823120117 0.020671328529715538 0.27350884675979614
0.8542922735214233 0.29283568263053894 0.06609637290239334
0.6008389592170715 0.04335702210664749 0.09971962124109268
0.8271259069442749 0.04213959723711014 0.3549414873123169
0.9948857426643372 0.3364970088005066 0.02210956998169422
0.663066565990448 0.28284913301467896 0.10688475519418716
0.45207229256629944 0.09191294014453888 0.03793523460626602
0.629411518573761 0.03828408196568489 0.08826986700296402
0.3862834870815277 0.017441196367144585 0.4221688210964203
0.08716387301683426 0.054183315485715866 0.4471595883369446
0.2848511338233948 0.3288116157054901 0.003750224830582738
0.2043343484401703 0.013945266604423523 0.36321407556533813
0.052694350481033325 0.01839541457593441 0.49605241417884827
0.04903314635157585 0.037563763558864594 0.29025834798812866
0.12528006732463837 0.0037502485793083906 0.5556274652481079
0.4166865348815918 0.3279443383216858 0.04867644980549812
0.5572232007980347 0.05144382268190384 0.31519636511802673
0.871446430683136 0.00375022878870368 0.4487082362174988
0.11154146492481232 0.2263222485780716 0.16120903193950653
0.5019851326942444 0.09456641227006912 0.07371185719966888
0.9079688191413879 0.03695111721754074 0.21084138751029968
0.9161548614501953 0.003750112373381853 0.4025704264640808
0.8314619064331055 0.09588561952114105 0.15263289213180542
0.2722063660621643 0.1392887681722641 0.0037501007318496704
0.5899856090545654 0.09870164841413498 0.1632159799337387
0.8341493606567383 0.2699374258518219 0.004004827234894037
0.5049609541893005 0.19995586574077606 0.003750057425349951
0.3783949017524719 0.09410133957862854 0.3235476315021515
0.16126351058483124 0.02806733176112175 0.08584710955619812
0.0037502474151551723 0.057555705308914185 0.01905115135014057
0.5598843097686768 0.1145438700914383 0.10291578620672226
0.0037500299513339996 0.013532181270420551 0.15825213491916656
0.12712472677230835 0.023196782916784286 0.5053316354751587
0.2458573281764984 0.0037500779144465923 0.544599175453186
0.0849650651216507 0.04646608978509903 0.4057457447052002
0.07585810869932175 0.08343338221311569 0.15093237161636353
0.47645121812820435 0.07760670781135559 0.18979188799858093
0.27090686559677124 0.10288181155920029 0.2830221652984619
0.7717810273170471 0.05663478374481201 0.2885434329509735
0.3324461579322815 0.04602188616991043 0.16240666806697845
0.6949487924575806 0.08419083058834076 0.2345583736896515
0.19406919181346893 0.04400334134697914 0.4721708297729492
0.9962496757507324 0.020510461181402206 0.558661699295044
0.9537097215652466 0.073127381503582 0.08733638375997543
0.7532404065132141 0.048594217747449875 0.03677748888731003
0.003750082105398178 0.04200287163257599 0.16326527297496796
0.3952789306640625 0.014214864000678062 0.09177421033382416
0.5760143399238586 0.19185449182987213 0.09353462606668472
0.4612995684146881 0.020879853516817093 0.45415180921554565
0.09453968703746796 0.1138673797249794 0.2250153124332428
0.6266033053398132 0.08171088248491287 0.24777908623218536
0.3987475335597992 0.2722380757331848 0.46164217591285706
0.5907061696052551 0.020283762365579605 0.44832977652549744
0.503270149230957 0.041779108345508575 0.3218110501766205
0.35434916615486145 0.029886562377214432 0.42267775535583496
0.3062506318092346 0.016722625121474266 0.23394429683685303
0.39576637744903564 0.003750175703316927 0.2632620334625244
0.3062889575958252 0.03199408948421478 0.2828463613986969
0.5934363007545471 0.03212088346481323 0.19305121898651123
0.5472435355186462 0.003750111209228635 0.16588860750198364
0.6990693211555481 0.12178529798984528 0.16229841113090515
0.9369806051254272 0.04276881739497185 0.32122358679771423
0.6457477807998657 0.04196145385503769 0.40738645195961
0.48202601075172424 0.050925128161907196 0.23413360118865967
0.9535681009292603 0.0218251533806324 0.5816117525100708
0.9685589671134949 0.02433859370648861 0.40254563093185425
0.021471315994858742 0.05746385455131531 0.30377236008644104
0.2640945613384247 0.015613993629813194 0.4942122995853424
0.6932300329208374 0.25952792167663574 0.16421552002429962
0.8957690000534058 0.07651561498641968 0.188018336892128
0.19482681155204773 0.022702526301145554 0.41408953070640564
0.4015110433101654 0.10292687267065048 0.2313186377286911
0.2047543078660965 0.07611033320426941 0.24577423930168152
0.4803689122200012 0.0037500958424061537 0.531988263130188
0.4491940438747406 0.176151305437088 0.0822218805551529
0.14121773838996887 0.017754502594470978 0.4830886423587799
0.4334443509578705 0.0037501275073736906 0.15059545636177063
0.11607910692691803 0.0788479670882225 0.2002623826265335
0.44074931740760803 0.1792297661304474 0.10101950168609619
0.19396550953388214 0.08981823176145554 0.23774929344654083
0.36450430750846863 0.18000730872154236 0.08891487866640091
0.5211736559867859 0.05898392200469971 0.020217638462781906
0.8450685739517212 0.003750057891011238 0.16054795682430267
0.5265192985534668 0.17215348780155182 0.13306273519992828
0.48404461145401 0.3840344548225403 0.06483043730258942
0.7190015912055969 0.3049127459526062 0.06212801858782768
0.7331531643867493 0.21201129257678986 0.0037501598708331585
0.5126762390136719 0.06782625615596771 0.18142008781433105
0.9962494969367981 0.017411932349205017 0.07226960361003876
0.5948934555053711 0.18573643267154694 0.03272750601172447
0.5819946527481079 0.048950742930173874 0.040888894349336624
0.33406662940979004 0.029837841168045998 0.17159031331539154
0.029342930763959885 0.35123246908187866 0.009078939445316792
0.8022928237915039 0.00375017779879272 0.003750203875824809
0.5833653807640076 0.21709387004375458 0.0037502492778003216
0.34534043073654175 0.48715439438819885 0.011987442150712013
0.6061006784439087 0.08437668532133102 0.048213668167591095
0.14940330386161804 0.033962611109018326 0.20330044627189636
0.014387229457497597 0.5392000079154968 0.02313815802335739
0.003750098403543234 0.06541457772254944 0.2891106903553009
0.6129826903343201 0.016101863235235214 0.1761842519044876
0.9478446245193481 0.003750063944607973 0.44151967763900757
0.6070147156715393 0.11216871440410614 0.08538799732923508
0.42930856347084045 0.36544814705848694 0.10211852937936783
0.4728921353816986 0.06464499235153198 0.22946730256080627
0.3253212571144104 0.04459082707762718 0.19814032316207886
0.701545238494873 0.21951380372047424 0.028403183445334435
0.9150843620300293 0.040340911597013474 0.2600066363811493
0.8044055700302124 0.09427335858345032 0.03330591693520546
0.9223271608352661 0.056551773101091385 0.243014857172966
0.0669018104672432 0.003750103060156107 0.41629689931869507
0.16171729564666748 0.0989886149764061 0.05163978412747383
0.6952645778656006 0.0037502304185181856 0.355834424495697
0.41751113533973694 0.37072885036468506 0.19696807861328125
