0.36488571763038635 0.03318246826529503 0.2691287100315094
0.9701973795890808 0.017473844811320305 0.18388935923576355
0.7854423522949219 0.27063098549842834 0.003750123083591461
0.6166582703590393 0.09297627210617065 0.13268247246742249
0.6883500814437866 0.00375008350238204 0.5369712114334106
0.4946759343147278 0.003750074189156294 0.20090964436531067
0.428527295589447 0.01714630052447319 0.20546099543571472
0.65000981092453 0.09164410829544067 0.07716478407382965
0.949919581413269 0.11859886348247528 0.03498908504843712
0.9290329813957214 0.003750153351575136 0.32257208228111267
0.6164642572402954 0.20611481368541718 0.038351356983184814
0.2303382158279419 0.003750033676624298 0.5797351598739624
0.50025475025177 0.20540063083171844 0.0243978314101696
0.2675151824951172 0.16571691632270813 0.09047633409500122
0.035487860441207886 0.016170095652341843 0.295076459646225
0.9962495565414429 0.0641343742609024 0.14203596115112305
0.0975947231054306 0.06100837513804436 0.09473596513271332
0.29770177602767944 0.03653981536626816 0.5015038251876831
0.6884636878967285 0.03518948331475258 0.16303126513957977
0.6966517567634583 0.04487716406583786 0.1119099110364914
0.06892508268356323 0.04497280344367027 0.14581194519996643
0.9320021867752075 0.12216468155384064 0.06290657073259354
0.4051685929298401 0.07579953968524933 0.05775489658117294
0.6385112404823303 0.02267712727189064 0.5772241353988647
0.3523029685020447 0.04485088586807251 0.12914982438087463
0.5514806509017944 0.0806553065776825 0.04481712728738785
0.577646017074585 0.0037501249462366104 0.1641809195280075
0.9801109433174133 0.10123942047357559 0.05186758190393448
0.32605719566345215 0.10046719014644623 0.047323085367679596
0.45637059211730957 0.25050756335258484 0.0037501181941479445
0.8983691930770874 0.003750123083591461 0.03741217777132988
0.1367374062538147 0.03731279447674751 0.09179243445396423
0.9596365690231323 0.3741830885410309 0.02126184105873108
0.13917820155620575 0.003750244155526161 0.3942626416683197
0.6538864970207214 0.06438108533620834 0.003750207368284464
0.03758065402507782 0.06655814498662949 0.35051050782203674
0.019717218354344368 0.003750202711671591 0.3754677176475525
0.6468426585197449 0.003750136122107506 0.08064401894807816
0.8418054580688477 0.1439538151025772 0.10530541837215424
0.12082352489233017 0.003750130534172058 0.3095535635948181
0.17802706360816956 0.08546511083841324 0.3091737627983093
0.2813330292701721 0.016348090022802353 0.24813155829906464
0.10198931396007538 0.030107390135526657 0.09699315577745438
0.22594258189201355 0.07422147691249847 0.0037501617334783077
0.8930066227912903 0.0037501275073736906 0.1259247362613678
0.7340965867042542 0.2657923102378845 0.04503953829407692
0.39133235812187195 0.45493340492248535 0.05910809710621834
0.9424451589584351 0.003750037867575884 0.3308480381965637
0.8349706530570984 0.09055326133966446 0.19247156381607056
0.4359426498413086 0.01474971603602171 0.08829671889543533
0.4961770474910736 0.3739170730113983 0.12965086102485657
0.7151589393615723 0.11310184001922607 0.1513657569885254
0.8361401557922363 0.04412906616926193 0.3059082627296448
0.8594868779182434 0.05430031940340996 0.1066344827413559
0.7139557600021362 0.07399659603834152 0.3015146553516388
0.5511861443519592 0.14410464465618134 0.003750232979655266
0.10594358295202255 0.2950279116630554 0.14378990232944489
0.15639525651931763 0.12693855166435242 0.1534731537103653
0.8283486366271973 0.13408532738685608 0.09686077386140823
0.2945733070373535 0.03142973780632019 0.10980020463466644
0.8068678975105286 0.008103856816887856 0.019064556807279587
0.420846164226532 0.0188135989010334 0.5562317967414856
0.032193560153245926 0.0037500516045838594 0.4200095534324646
0.012342657893896103 0.14197644591331482 0.26738816499710083
0.6485213041305542 0.14728876948356628 0.021423334255814552
0.22502665221691132 0.04633186757564545 0.15144573152065277
0.019581574946641922 0.05144912004470825 0.08343038707971573
0.7845302820205688 0.09910465776920319 0.10058905184268951
0.42277368903160095 0.3756948709487915 0.051708608865737915
0.31611454486846924 0.23612172901630402 0.045195162296295166
0.6996687650680542 0.1218060851097107 0.07151634991168976
0.9373968839645386 0.03131157159805298 0.0037502434570342302
0.8244291543960571 0.32362082600593567 0.012018217705190182
0.6569979786872864 0.09320969879627228 0.03829963505268097
0.2155088484287262 0.016340747475624084 0.36031365394592285
0.3725799322128296 0.5017141103744507 0.5334395170211792
0.2744959592819214 0.0037501256447285414 0.20489564538002014
0.1334265023469925 0.06299305707216263 0.1738130748271942
0.7277814745903015 0.1711495816707611 0.23813438415527344
0.0781169980764389 0.003750177100300789 0.13635332882404327
0.3160397410392761 0.14398619532585144 0.1781204342842102
0.25154632329940796 0.1290758103132248 0.02007170207798481
0.003750051837414503 0.12620915472507477 0.25798386335372925
0.8915587663650513 0.040581438690423965 0.020181842148303986
0.14978757500648499 0.1665353626012802 0.07020385563373566
0.5042610764503479 0.09583073854446411 0.003750038566067815
0.19556792080402374 0.04183531552553177 0.0037501591723412275
0.8504692316055298 0.05872172862291336 0.07798626273870468
0.7034212350845337 0.04188058525323868 0.04233499616384506
0.1283511221408844 0.04012513905763626 0.22833068668842316
0.14039579033851624 0.14564068615436554 0.08735088258981705
0.7420434355735779 0.003750141244381666 0.031708914786577225
0.9366906881332397 0.02954745851457119 0.038810767233371735
0.36900120973587036 0.017382938414812088 0.17990975081920624
0.9962494969367981 0.048003554344177246 0.16290283203125
0.24139884114265442 0.09365368634462357 0.057290591299533844
0.3779943585395813 0.17644736170768738 0.12539170682430267
0.4610244333744049 0.09460138529539108 0.19795459508895874
0.30908191204071045 0.17264987528324127 0.10064862668514252
0.12919674813747406 0.04733341187238693 0.07956484705209732
0.13532112538814545 0.016038324683904648 0.09625376760959625
0.2811252474784851 0.22082507610321045 0.003750234842300415
0.5714738965034485 0.08868424594402313 0.18884755671024323
0.6802628040313721 0.0037500946782529354 0.4013403356075287
0.4842376708984375 0.1797095239162445 0.0037501584738492966
0.5461068153381348 0.05893842130899429 0.10670914500951767
0.21256980299949646 0.015420012176036835 0.1849093735218048
0.5337084531784058 0.05677346512675285 0.019935842603445053
0.8504431843757629 0.06104264780879021 0.23153841495513916
0.2522163391113281 0.04899250715970993 0.21323004364967346
0.7871415019035339 0.01921563781797886 0.1686888039112091
0.49851006269454956 0.375840425491333 0.004354170523583889
0.708285927772522 0.04320826381444931 0.0733509510755539
0.8354244232177734 0.16767773032188416 0.04098239913582802
0.6976850628852844 0.01713373325765133 0.14281325042247772
0.1401491016149521 0.3020837903022766 0.017785223200917244
0.8133130073547363 0.04127895087003708 0.024893227964639664
0.4172877371311188 0.3833445906639099 0.11662006378173828
0.537886917591095 0.0037500716280192137 0.284274160861969
0.8334234952926636 0.028329327702522278 0.055505432188510895
0.004221954382956028 0.0778994932770729 0.519858181476593
0.1091729998588562 0.01993042416870594 0.5061638355255127
0.053987253457307816 0.08925352990627289 0.2071211338043213
0.26533371210098267 0.0037500206381082535 0.46765026450157166
0.42040881514549255 0.045497793704271317 0.01969970390200615
0.3577604293823242 0.18231338262557983 0.08153600990772247
0.20709340274333954 0.1189168319106102 0.1584973931312561
0.15666328370571136 0.0037501673214137554 0.32260286808013916
0.6975703835487366 0.029059212654829025 0.0724744126200676
0.6197980642318726 0.06835845112800598 0.03300383314490318
0.4198550581932068 0.042970530688762665 0.07467881590127945
0.35759633779525757 0.09446582198143005 0.0037501014303416014
0.9622982144355774 0.0037502460181713104 0.012528441846370697
0.9668916463851929 0.05121675878763199 0.021721376106142998
0.2668336033821106 0.015468748286366463 0.21621093153953552
0.9620852470397949 0.003750025760382414 0.24244217574596405
0.5808994770050049 0.1275409311056137 0.1981649100780487
0.33403852581977844 0.11610957235097885 0.10914258658885956
0.1650300770998001 0.02735537849366665 0.039604850113391876
0.9695520401000977 0.091758131980896 0.17528685927391052
0.0324605330824852 0.007355398032814264 0.0175597183406353
0.19754113256931305 0.055844634771347046 0.023157235234975815
0.03855355829000473 0.015840645879507065 0.05064846947789192
0.1453457772731781 0.18102005124092102 0.03644455969333649
0.12315962463617325 0.0642232596874237 0.2808324694633484
0.15683843195438385 0.028815586119890213 0.12336057424545288
0.11588424444198608 0.46892476081848145 0.08751627802848816
0.42654672265052795 0.04757703095674515 0.1556626558303833
0.36929038166999817 0.04079151526093483 0.07371284812688828
0.3701621890068054 0.0037502360064536333 0.17206981778144836
0.444557249546051 0.030064547434449196 0.1765478253364563
0.7454721331596375 0.05470375344157219 0.16795924305915833
0.36004260182380676 0.04538627341389656 0.1668783277273178
0.2888150215148926 0.01263571809977293 0.16743174195289612
0.7969444394111633 0.11419059336185455 0.05110498517751694
0.7894752025604248 0.0037501633632928133 0.15497612953186035
0.504294753074646 0.16028393805027008 0.12585356831550598
0.6324793100357056 0.28167539834976196 0.059393443167209625
0.1573059856891632 0.0731533095240593 0.17213459312915802
0.08265899866819382 0.027776634320616722 0.36479419469833374
0.33537226915359497 0.11678799241781235 0.22071588039398193
0.04136912152171135 0.3358282744884491 0.0037821284495294094
0.3366740047931671 0.09669583290815353 0.17727050185203552
0.5349733233451843 0.0037500779144465923 0.2358493059873581
0.26621013879776 0.1577634960412979 0.03713304549455643
0.31216782331466675 0.32606643438339233 0.0037501465994864702
0.05638444423675537 0.044223107397556305 0.24552014470100403
0.3904275596141815 0.11727948486804962 0.13118168711662292
0.59585040807724 0.11493474245071411 0.038930878043174744
0.34151679277420044 0.16471777856349945 0.037193916738033295
0.48534727096557617 0.2892548143863678 0.003750207368284464
0.15491361916065216 0.12675371766090393 0.05447860434651375
0.10988779366016388 0.13233759999275208 0.020761758089065552
0.44345569610595703 0.06296907365322113 0.17683371901512146
0.9416776895523071 0.0037500064354389906 0.31309983134269714
0.7727749347686768 0.11395587027072906 0.09581984579563141
0.9962494969367981 0.019752416759729385 0.23650436103343964
0.7220413684844971 0.06733723729848862 0.02098020166158676
0.47211211919784546 0.0037500932812690735 0.21123389899730682
0.0705491304397583 0.05279853940010071 0.30279475450515747
0.5276875495910645 0.10306034237146378 0.23414523899555206
0.3934693932533264 0.020806971937417984 0.4769548773765564
0.18617302179336548 0.08447112143039703 0.07233929634094238
0.5407411456108093 0.020298494026064873 0.43837299942970276
0.19055086374282837 0.061527471989393234 0.35410773754119873
0.20796501636505127 0.2670709192752838 0.0037500187754631042
0.2750322222709656 0.42010632157325745 0.004632710479199886
0.20515727996826172 0.33757680654525757 0.23689964413642883
0.3583948016166687 0.24654126167297363 0.058788053691387177
0.21366727352142334 0.21631482243537903 0.04288005083799362
0.6628780364990234 0.082101970911026 0.020493848249316216
0.7505359053611755 0.1359558254480362 0.003750073490664363
0.42088884115219116 0.07522344589233398 0.15326039493083954
0.8922931551933289 0.02354097180068493 0.5284315347671509
0.6125365495681763 0.08388754725456238 0.22106632590293884
0.9635032415390015 0.00375011982396245 0.15434667468070984
0.9281050562858582 0.031085029244422913 0.0560496561229229
0.9426580667495728 0.021403644233942032 0.2533968687057495
0.9031340479850769 0.07454822957515717 0.1298479437828064
0.9921034574508667 0.182262122631073 0.3108557462692261
0.3334300220012665 0.04406175762414932 0.11845489591360092
0.12049432843923569 0.3445103168487549 0.006067381706088781
0.2038203775882721 0.07603393495082855 0.17024651169776917
0.16722379624843597 0.0037500387988984585 0.018499787896871567
0.2751752734184265 0.016879016533493996 0.3790656626224518
0.13877110183238983 0.029944714158773422 0.519156813621521
0.007517138030380011 0.18069255352020264 0.08467735350131989
0.7311386466026306 0.09803441911935806 0.1409512162208557
0.2117125242948532 0.05145671218633652 0.49410480260849
0.5621210336685181 0.12054270505905151 0.19270171225070953
0.43711671233177185 0.10373330116271973 0.22063641250133514
0.32251840829849243 0.01763715222477913 0.4682270884513855
0.5882643461227417 0.0037500672042369843 0.15382766723632812
0.7413214445114136 0.06335695832967758 0.01966153457760811
0.9170280694961548 0.0037500716280192137 0.228224515914917
0.9695004224777222 0.003750019473955035 0.026977110654115677
0.9962494969367981 0.01937164179980755 0.21946200728416443
0.913221538066864 0.11988268047571182 0.051693689078092575
0.3109065890312195 0.2631959319114685 0.2562539577484131
0.9664152264595032 0.06151504069566727 0.08624273538589478
0.8259966969490051 0.09030929207801819 0.23635098338127136
0.30289173126220703 0.06935576349496841 0.13928428292274475
0.11901827901601791 0.04917281121015549 0.3146539628505707
0.1253669559955597 0.06140373274683952 0.2986840605735779
0.022890131920576096 0.07840515673160553 0.10057252645492554
0.49097496271133423 0.09333262592554092 0.19236275553703308
0.5584641098976135 0.037238627672195435 0.34831997752189636
0.10848766565322876 0.05111454054713249 0.0815238282084465
0.3544676899909973 0.0037501491606235504 0.5025478601455688
0.4272139072418213 0.09972250461578369 0.1328379511833191
0.34340450167655945 0.07420255243778229 0.34501826763153076
0.5764235258102417 0.0203391220420599 0.29941096901893616
0.6765750646591187 0.03364383429288864 0.4891883432865143
0.5809447765350342 0.07822829484939575 0.2289888858795166
0.30238160490989685 0.15980908274650574 0.1697540432214737
0.7479556798934937 0.003750121919438243 0.11645253002643585
0.8333255052566528 0.015984853729605675 0.07274846732616425
0.4499800205230713 0.462512731552124 0.005923136603087187
0.9637256860733032 0.21174101531505585 0.03640348091721535
0.9962496757507324 0.06875105202198029 0.22344598174095154
0.6094390749931335 0.013758743181824684 0.0673491358757019
0.9599018096923828 0.2583032250404358 0.07752461731433868
0.36191943287849426 0.3578048348426819 0.17341139912605286
0.22801797091960907 0.030703136697411537 0.5430741906166077
0.11019569635391235 0.013732719235122204 0.0037501337938010693
0.24968619644641876 0.019528720527887344 0.5148352384567261
0.38839584589004517 0.01825246401131153 0.3592318892478943
0.0037551149725914 0.08485642075538635 0.5496199727058411
0.0039921710267663 0.08451385051012039 0.5789968967437744
0.6652693748474121 0.0064009008929133415 0.03688023239374161
0.27597856521606445 0.08658576756715775 0.040882207453250885
0.47153860330581665 0.12381811439990997 0.11979268491268158
0.8038789629936218 0.017116572707891464 0.13254928588867188
0.21193520724773407 0.3267924189567566 0.009681539610028267
0.0041025010868906975 0.11503100395202637 0.43638181686401367
0.7013620138168335 0.03228171914815903 0.4212781488895416
0.9141481518745422 0.003750218078494072 0.24483832716941833
0.9796637296676636 0.0037501095794141293 0.14667880535125732
0.9347979426383972 0.003750002011656761 0.2016715556383133
0.9552693367004395 0.0037500355392694473 0.30294159054756165
0.8741869926452637 0.003750041127204895 0.34003257751464844
0.6916825771331787 0.08689470589160919 0.11117938905954361
0.28392958641052246 0.39915305376052856 0.04730307310819626
0.34201592206954956 0.051476992666721344 0.5544699430465698
0.37116730213165283 0.3761778473854065 0.0041924151591956615
0.10053132474422455 0.1912202090024948 0.05929235368967056
0.3921460211277008 0.1232398971915245 0.24911093711853027
0.076886385679245 0.02979513630270958 0.02134760655462742
0.4542221128940582 0.02185753360390663 0.38625723123550415
0.20663103461265564 0.01477048546075821 0.4203706681728363
0.481306254863739 0.003750014351680875 0.25362855195999146
0.39170995354652405 0.44570422172546387 0.04918956011533737
0.6900544762611389 0.11084733158349991 0.2172844409942627
0.05642958730459213 0.14953772723674774 0.04482875019311905
0.3937839865684509 0.23148398101329803 0.07579727470874786
0.11250539869070053 0.027114644646644592 0.5604770183563232
0.46990975737571716 0.029283598065376282 0.07975921034812927
0.9380065202713013 0.013329644687473774 0.03370290622115135
0.7581161260604858 0.016584914177656174 0.12427771091461182
0.9516509771347046 0.013022074475884438 0.08536914736032486
0.9070801734924316 0.013293045572936535 0.03596924990415573
0.8840662240982056 0.003750097705051303 0.2427174299955368
0.9106830358505249 0.028072336688637733 0.050564736127853394
0.8760175704956055 0.18959034979343414 0.058951400220394135
0.4517585337162018 0.015465174801647663 0.10303138196468353
0.01283581368625164 0.5691390037536621 0.012081167660653591
0.026871323585510254 0.07831527292728424 0.4062930643558502
0.11620732396841049 0.0682634711265564 0.36845096945762634
0.15346094965934753 0.1427713930606842 0.13768093287944794
0.13096848130226135 0.04959382116794586 0.4614003598690033
0.047155823558568954 0.003750154050067067 0.495089590549469
0.32513362169265747 0.18409213423728943 0.10204263776540756
0.29056400060653687 0.028808917850255966 0.3789847493171692
0.040261946618556976 0.34206199645996094 0.09300858527421951
0.5419908165931702 0.20048661530017853 0.17904922366142273
0.7578988075256348 0.022722169756889343 0.3847752809524536
0.29781076312065125 0.0037500602193176746 0.37657010555267334
0.4041561186313629 0.15803688764572144 0.09388650953769684
0.6414145231246948 0.16467125713825226 0.022472582757472992
0.6196545362472534 0.1302730143070221 0.08155175298452377
0.85210120677948 0.2505374252796173 0.07487785071134567
0.7923080921173096 0.03560279309749603 0.05850350856781006
0.7120283842086792 0.16348078846931458 0.1817939430475235
0.3433883786201477 0.3664342761039734 0.17308922111988068
0.816571831703186 0.08926302939653397 0.0897889956831932
0.5209819078445435 0.2344721257686615 0.08679290860891342
0.200147345662117 0.02591341733932495 0.5347374677658081
0.05347573757171631 0.05906962230801582 0.17360016703605652
0.46042704582214355 0.2895895540714264 0.06984321027994156
0.888720691204071 0.023542320355772972 0.32324251532554626
0.12296853959560394 0.04903915524482727 0.026378292590379715
0.13769195973873138 0.0037501552142202854 0.10568324476480484
0.1560732126235962 0.04833240061998367 0.0037501424085348845
0.38793250918388367 0.0037501039914786816 0.3124573528766632
0.19786620140075684 0.08695248514413834 0.003750048577785492
0.4845835268497467 0.03420928865671158 0.3191061317920685
0.1263195425271988 0.12687009572982788 0.16174589097499847
0.6546742916107178 0.003750069532543421 0.26872050762176514
0.18589425086975098 0.05679929256439209 0.00375004974193871
0.00375005672685802 0.06708104908466339 0.322828084230423
0.3855358958244324 0.07944358140230179 0.08177125453948975
0.8427128791809082 0.03974831476807594 0.2813566327095032
0.8441107869148254 0.003750051837414503 0.2915903627872467
0.982649028301239 0.11151693016290665 0.03710555285215378
0.33665183186531067 0.003750063944607973 0.17957434058189392
0.9962495565414429 0.020795615389943123 0.20440295338630676
0.855575680732727 0.277086466550827 0.05928162857890129
0.09582996368408203 0.07131098955869675 0.13284555077552795
0.21604487299919128 0.003750136587768793 0.054838526993989944
0.15218141674995422 0.15307974815368652 0.0259686466306448
0.29727742075920105 0.0037501375190913677 0.003750179661437869
0.03616083413362503 0.18059781193733215 0.0037500592879951
0.12264424562454224 0.1866128146648407 0.029191721230745316
0.20865888893604279 0.03131338208913803 0.3182455897331238
0.32066887617111206 0.5058227181434631 0.03985775634646416
0.25024962425231934 0.02900232933461666 0.2943918704986572
0.24136188626289368 0.08264424651861191 0.2422320395708084
0.5712288618087769 0.0037500776816159487 0.5257090330123901
0.3466722071170807 0.2731366455554962 0.03921611234545708
0.6786181330680847 0.05770767852663994 0.2860347330570221
0.8720663785934448 0.16327929496765137 0.033783022314310074
0.852827250957489 0.0037500965408980846 0.2767711281776428
0.8864358067512512 0.3101382851600647 0.003750049276277423
0.8916617631912231 0.01985980197787285 0.018283413723111153
0.9280470013618469 0.07363870739936829 0.16518643498420715
0.2687220275402069 0.12148451805114746 0.07778781652450562
0.8731914758682251 0.08528335392475128 0.1728919893503189
0.7548487782478333 0.04436590149998665 0.04780653864145279
0.4543585181236267 0.26684629917144775 0.07347947359085083
0.6227284073829651 0.0037500467151403427 0.49014249444007874
0.5643223524093628 0.07891473919153214 0.31254857778549194
0.7394571304321289 0.1488202065229416 0.09997071325778961
0.18604038655757904 0.06409041583538055 0.4119345545768738
0.18935668468475342 0.015857473015785217 0.5491052865982056
0.216628760099411 0.06832946091890335 0.437692254781723
0.058400023728609085 0.23755888640880585 0.17939573526382446
0.6341625452041626 0.0037500925827771425 0.5463019609451294
0.4052743911743164 0.12749826908111572 0.1827300786972046
0.4168139398097992 0.07675076276063919 0.18722613155841827
0.8581879734992981 0.003750146832317114 0.5434535145759583
0.6747120022773743 0.003750081639736891 0.34985655546188354
0.7742063403129578 0.1085561141371727 0.17478637397289276
0.7839850187301636 0.1151706725358963 0.18755140900611877
0.9816848039627075 0.1337743103504181 0.041559211909770966
0.3533315062522888 0.0037500776816159487 0.1138250008225441
0.29074904322624207 0.13950976729393005 0.3895915448665619
0.2636335492134094 0.059717923402786255 0.2877804636955261
0.7862626314163208 0.018666518852114677 0.1015084981918335
0.719482421875 0.1252860128879547 0.02905663475394249
0.3588687777519226 0.003750238101929426 0.48110637068748474
0.1435149908065796 0.06263749301433563 0.28372636437416077
0.17184993624687195 0.04988832771778107 0.5109249353408813
0.07325431704521179 0.016910139471292496 0.06481859087944031
0.4775974750518799 0.1281505674123764 0.23281896114349365
0.3115181028842926 0.11335603147745132 0.18962237238883972
0.2469150573015213 0.0178140290081501 0.555184006690979
0.28974562883377075 0.0629478320479393 0.3777567148208618
0.41597533226013184 0.0037501328624784946 0.5425119996070862
0.28718745708465576 0.016273431479930878 0.39621293544769287
0.4997046887874603 0.0037502343766391277 0.5300983786582947
0.47331708669662476 0.0037501384504139423 0.5797349214553833
0.5390489101409912 0.04951370134949684 0.19141049683094025
0.6663602590560913 0.2156941145658493 0.09317837655544281
0.8432542681694031 0.0037500839680433273 0.48014312982559204
0.8023890256881714 0.03979784995317459 0.3452358841896057
0.7830455303192139 0.03281785175204277 0.1356252133846283
0.5145093202590942 0.3197198808193207 0.15019547939300537
0.8827424049377441 0.02720174565911293 0.4528466761112213
0.6785405278205872 0.17645707726478577 0.02309531159698963
0.6892160177230835 0.04137731343507767 0.0648074746131897
0.12897193431854248 0.003750189673155546 0.25219058990478516
0.9962495565414429 0.36521944403648376 0.011601734906435013
0.40821895003318787 0.03233257681131363 0.40293407440185547
0.35157737135887146 0.10072120279073715 0.3096032440662384
0.40374311804771423 0.16543249785900116 0.12492702901363373
0.6628822088241577 0.0037945169024169445 0.5797351002693176
0.3151000142097473 0.003750193864107132 0.5571699142456055
0.1874830424785614 0.01693297177553177 0.003750111209228635
0.020326053723692894 0.06012286990880966 0.2196294069290161
0.4651293158531189 0.03495487570762634 0.5333592891693115
0.24559494853019714 0.09289780259132385 0.0037500273901969194
0.7686215043067932 0.0037501708138734102 0.08095478266477585
0.2417643815279007 0.10902528464794159 0.00375004718080163
0.6587937474250793 0.018888739868998528 0.17022764682769775
0.6955479383468628 0.35591018199920654 0.0367211177945137
0.9176768064498901 0.06639260798692703 0.21887466311454773
0.7944827675819397 0.0037501207552850246 0.4741337299346924
0.6262370347976685 0.3688879609107971 0.0037501375190913677
0.17121736705303192 0.11244072020053864 0.2879933714866638
0.9934313893318176 0.26468580961227417 0.13789978623390198
0.8482658267021179 0.1935672163963318 0.003750076051801443
0.43843990564346313 0.07761809229850769 0.31113535165786743
0.586560070514679 0.13935010135173798 0.021687831729650497
0.0037501894403249025 0.05080239102244377 0.3147926926612854
0.01857253536581993 0.07425492256879807 0.16244515776634216
0.26616209745407104 0.013716322369873524 0.0932445153594017
0.19966748356819153 0.029371779412031174 0.2955438494682312
0.11130932718515396 0.13316768407821655 0.0037500697653740644
0.033485230058431625 0.003750124480575323 0.23706917464733124
0.4443590044975281 0.02025982365012169 0.40645718574523926
0.32376453280448914 0.003750034375116229 0.34511688351631165
0.8302544355392456 0.06870292127132416 0.021991288289427757
0.5531561970710754 0.11509871482849121 0.052086640149354935
0.4374941289424896 0.003750115167349577 0.3607984483242035
0.34038275480270386 0.15827742218971252 0.003750096308067441
0.7506687045097351 0.05921713635325432 0.051846735179424286
0.665743887424469 0.23015038669109344 0.02453189715743065
0.9012473821640015 0.09650128334760666 0.1745908558368683
0.9823504686355591 0.0362832136452198 0.34868302941322327
0.5747857689857483 0.11367256939411163 0.0646531954407692
0.009110869839787483 0.1496916115283966 0.07662812620401382
0.03678332641720772 0.0805441290140152 0.4129348695278168
0.3218878209590912 0.06504123657941818 0.17498423159122467
0.14845526218414307 0.0037501517217606306 0.22611717879772186
0.1125466376543045 0.049418456852436066 0.21208980679512024
0.12257035821676254 0.16516956686973572 0.0037501410115510225
0.5822609663009644 0.16025853157043457 0.13887043297290802
0.19357742369174957 0.0559450164437294 0.46128758788108826
0.3722895383834839 0.28565189242362976 0.03695164993405342
0.229277566075325 0.17340412735939026 0.06349655240774155
0.003750154748558998 0.13893672823905945 0.06424091756343842
0.5580023527145386 0.022115761414170265 0.45368653535842896
0.20852217078208923 0.003750008763745427 0.02027922496199608
0.7078734636306763 0.03244994208216667 0.05650392919778824
0.6193893551826477 0.10310898721218109 0.25906944274902344
0.5358022451400757 0.04924242943525314 0.2702004313468933
0.7494617700576782 0.25092026591300964 0.003750139381736517
0.0037502055056393147 0.040112875401973724 0.1968088448047638
0.9962495565414429 0.029172774404287338 0.1760537028312683
0.4306620657444 0.3459632992744446 0.007039910648018122
0.6806658506393433 0.101434625685215 0.05758519098162651
0.8619116544723511 0.21267035603523254 0.1954054832458496
0.12465784698724747 0.05374839901924133 0.3367440700531006
0.4489192068576813 0.18275895714759827 0.16736385226249695
0.25831374526023865 0.030474822968244553 0.4632590711116791
0.12266568094491959 0.04895368963479996 0.17629842460155487
0.05321884900331497 0.041017964482307434 0.5088664293289185
0.1756417602300644 0.06977729499340057 0.2654324173927307
0.15502092242240906 0.04117836058139801 0.31835901737213135
0.4881593585014343 0.05500373989343643 0.075874924659729
0.0037500220350921154 0.04047591611742973 0.016367416828870773
0.15109242498874664 0.1586657464504242 0.09725165367126465
0.512192964553833 0.03869432583451271 0.36525991559028625
0.0408325158059597 0.060890208929777145 0.24434761703014374
0.08648813515901566 0.04617220163345337 0.02013719454407692
0.4870675206184387 0.07398614287376404 0.10988684743642807
0.4111669659614563 0.10276199877262115 0.30878764390945435
0.38071101903915405 0.10281027853488922 0.11970458179712296
0.4490160346031189 0.13374246656894684 0.01981741189956665
0.6914968490600586 0.18756085634231567 0.00375008350238204
0.463637113571167 0.028654253110289574 0.037072520703077316
0.23976238071918488 0.10618096590042114 0.31322842836380005
0.9067238569259644 0.31042107939720154 0.00402695219963789
0.32595404982566833 0.0037501591723412275 0.2300841063261032
0.13623011112213135 0.003750218078494072 0.45453065633773804
0.21518346667289734 0.03990287706255913 0.267191618680954
0.4685947895050049 0.003750226693227887 0.10656742751598358
0.7332610487937927 0.0037501275073736906 0.10886313021183014
0.3060162365436554 0.06201217323541641 0.2799266576766968
0.4288173317909241 0.07226784527301788 0.22301054000854492
0.1698603332042694 0.09308618307113647 0.0973004549741745
0.6791476011276245 0.0709877461194992 0.08264771103858948
0.5475236773490906 0.0037502094637602568 0.05106166750192642
0.9349316358566284 0.32264137268066406 0.005535198841243982
0.2028856724500656 0.02848109044134617 0.08672691136598587
0.5711849927902222 0.07269120961427689 0.054649002850055695
0.2762123942375183 0.15544842183589935 0.2469409704208374
0.33805975317955017 0.07346008718013763 0.2594226896762848
0.2957962453365326 0.0037501405458897352 0.12180235236883163
0.7979491949081421 0.01864663138985634 0.08110511302947998
0.9352984428405762 0.30549609661102295 0.003791527124121785
0.40006184577941895 0.30827945470809937 0.021433725953102112
0.6907187700271606 0.1150202751159668 0.0565619170665741
0.051602233201265335 0.36265480518341064 0.03894123435020447
0.951686680316925 0.09685182571411133 0.17230939865112305
0.01744503155350685 0.016427593305706978 0.3595227599143982
0.23297825455665588 0.4986955523490906 0.010951118543744087
0.14649280905723572 0.0037501398473978043 0.13852548599243164
0.04927986487746239 0.003750141244381666 0.41187143325805664
0.0611223503947258 0.05031764507293701 0.1259557008743286
0.07183391600847244 0.1496637761592865 0.03014337085187435
0.10331825911998749 0.03222562000155449 0.21837258338928223
0.03416530415415764 0.016987182199954987 0.34821218252182007
0.16906002163887024 0.07154076546430588 0.3026983141899109
0.8864790797233582 0.03148159012198448 0.07525233924388885
0.26902157068252563 0.016558876261115074 0.11532142013311386
0.44261986017227173 0.059005457907915115 0.40039557218551636
0.0037500145845115185 0.003750193165615201 0.42687660455703735
0.3665960431098938 0.19265154004096985 0.003750090254470706
0.5952669382095337 0.09131214767694473 0.023956233635544777
0.4529966413974762 0.016740722581744194 0.06840730458498001
0.7580723762512207 0.07370816171169281 0.09930615872144699
0.6061446666717529 0.033129774034023285 0.225968599319458
0.9001004099845886 0.05147377774119377 0.032259054481983185
0.7395600080490112 0.1477796733379364 0.003750111209228635
0.8068599700927734 0.09646826982498169 0.003750080708414316
0.2004932165145874 0.05999232456088066 0.2899332344532013
0.45828455686569214 0.0439663790166378 0.028999891132116318
0.09151838719844818 0.0037500783801078796 0.43660861253738403
0.12073242664337158 0.031651727855205536 0.21757474541664124
0.003750136587768793 0.053655195981264114 0.023574598133563995
0.14813856780529022 0.003750006202608347 0.17460545897483826
0.32206758856773376 0.016867157071828842 0.18241862952709198
0.42023196816444397 0.05068249627947807 0.003750098403543234
0.04722555726766586 0.0037500509060919285 0.1930083930492401
0.8524109721183777 0.029564902186393738 0.061653703451156616
0.11291865259408951 0.11722587049007416 0.19828902184963226
0.6149784326553345 0.025969844311475754 0.07744000852108002
0.7468280792236328 0.003750209230929613 0.0037500921171158552
0.34055477380752563 0.13652057945728302 0.003750006202608347
0.6768203973770142 0.0693705677986145 0.15273620188236237
0.9962496757507324 0.18593081831932068 0.030221402645111084
0.9150673151016235 0.08718223869800568 0.03330453485250473
0.855420708656311 0.0037500406615436077 0.09024851024150848
0.8277925252914429 0.1502949744462967 0.0037502062041312456
0.9545105695724487 0.017167819663882256 0.046222276985645294
0.21430082619190216 0.21984711289405823 0.012914920225739479
0.1078520193696022 0.026129305362701416 0.07902419567108154
0.030263686552643776 0.15424922108650208 0.3004615604877472
0.021872250363230705 0.0827651172876358 0.44146662950515747
0.31926870346069336 0.10759896039962769 0.0037501833867281675
0.32531625032424927 0.033003069460392 0.48075205087661743
0.53424471616745 0.020976882427930832 0.5407501459121704
0.09083929657936096 0.035472605377435684 0.1893710494041443
0.575379490852356 0.00375017779879272 0.5797350406646729
0.11575913429260254 0.04233045130968094 0.09549687802791595
0.45742592215538025 0.09424372017383575 0.26212936639785767
0.5370131731033325 0.06554394960403442 0.34693285822868347
0.5329030752182007 0.003750175703316927 0.5295858383178711
0.3472926616668701 0.0756770521402359 0.03643112629652023
0.6115659475326538 0.016803409904241562 0.19464930891990662
0.5508232712745667 0.32790231704711914 0.0037500399630516768
0.45018935203552246 0.137263223528862 0.06744072586297989
0.5191766023635864 0.3432738184928894 0.1564728319644928
0.7869386076927185 0.0037502050399780273 0.3204858899116516
0.9962494969367981 0.0791349932551384 0.06360247731208801
0.6108766198158264 0.07776875793933868 0.020565323531627655
0.9811300039291382 0.030448388308286667 0.022342823445796967
0.16851337254047394 0.1320761889219284 0.03804923966526985
0.334233820438385 0.06142302602529526 0.3137945532798767
0.18693479895591736 0.0650373250246048 0.10333706438541412
0.10263371467590332 0.050838034600019455 0.3010696768760681
0.263214111328125 0.3244187831878662 0.012110782787203789
0.2330564707517624 0.06077175214886665 0.003750064643099904
0.9240622520446777 0.042740825563669205 0.10637208074331284
0.9743301272392273 0.025352731347084045 0.31443095207214355
0.22824856638908386 0.2744091749191284 0.010103355161845684
0.006428348831832409 0.12719373404979706 0.17571143805980682
0.2515559196472168 0.0694185197353363 0.04730752110481262
0.5006199479103088 0.21540029346942902 0.08396025002002716
0.5464078187942505 0.04161942005157471 0.2858527898788452
0.2867623567581177 0.0037502069026231766 0.1765686571598053
0.962321937084198 0.12846152484416962 0.05367376655340195
0.6858991980552673 0.04741945117712021 0.1332707405090332
0.350104421377182 0.09161771833896637 0.055038101971149445
0.18311844766139984 0.1306200921535492 0.08920758217573166
0.9044202566146851 0.030257871374487877 0.0037500120233744383
0.36291253566741943 0.018683355301618576 0.06895604729652405
0.20562824606895447 0.1413818746805191 0.02483861893415451
0.07289999723434448 0.09913380444049835 0.2690311074256897
0.017735609784722328 0.02566596493124962 0.003750218776986003
0.2521109879016876 0.0450386181473732 0.5406941771507263
0.4951811730861664 0.0037501640617847443 0.08643762767314911
0.1274116039276123 0.015721652656793594 0.20146112143993378
0.23212449252605438 0.04684305936098099 0.29471874237060547
0.14094023406505585 0.06100519746541977 0.08329624682664871
0.37885943055152893 0.030782347545027733 0.31923285126686096
0.36607056856155396 0.04951503127813339 0.3030354678630829
0.26205193996429443 0.11419161409139633 0.19078217446804047
0.4527347683906555 0.0037500965408980846 0.1384580433368683
0.7063010931015015 0.04857609421014786 0.2315940409898758
0.7126556634902954 0.029097046703100204 0.48078832030296326
0.4946576952934265 0.3008723556995392 0.038960784673690796
0.7772471308708191 0.03539948910474777 0.16820478439331055
0.6951557397842407 0.10945811122655869 0.0223208200186491
0.9838880300521851 0.024270106106996536 0.49248576164245605
0.9962496757507324 0.04525838792324066 0.1792609989643097
0.9962494969367981 0.00375002296641469 0.1400778591632843
0.511070728302002 0.2578199505805969 0.06043024733662605
0.45274782180786133 0.03336081653833389 0.24884653091430664
0.48517686128616333 0.19123637676239014 0.1171928271651268
0.36515873670578003 0.07634002715349197 0.19364799559116364
0.15383696556091309 0.07079340517520905 0.3163798451423645
0.30014967918395996 0.10476452112197876 0.32525914907455444
0.21543678641319275 0.15419816970825195 0.08415436744689941
0.23217889666557312 0.24113717675209045 0.035805221647024155
0.1960245668888092 0.2121741771697998 0.04666401445865631
0.42867985367774963 0.043553657829761505 0.2055945098400116
0.856279730796814 0.021247422322630882 0.24255803227424622
0.24751992523670197 0.02149788849055767 0.01972520723938942
0.513482928276062 0.05956042930483818 0.07436983287334442
0.30565038323402405 0.05397987365722656 0.09165149182081223
0.5961981415748596 0.12835338711738586 0.054947637021541595
0.6890194416046143 0.09230095148086548 0.1680087447166443
0.7175382375717163 0.05663937330245972 0.15892890095710754
0.7531331777572632 0.01612050272524357 0.06287779659032822
0.8682049512863159 0.0037501819897443056 0.5266344547271729
0.8181398510932922 0.10362733900547028 0.05043548345565796
0.6590421795845032 0.05007600039243698 0.18985071778297424
0.6056187748908997 0.1810327023267746 0.10422338545322418
0.5712040066719055 0.018203455954790115 0.2228265106678009
0.047251470386981964 0.016909373924136162 0.5044885277748108
0.21231111884117126 0.12234918028116226 0.0037500597536563873
0.37744757533073425 0.04657949507236481 0.21487805247306824
0.3210941255092621 0.045850105583667755 0.2113678753376007
0.14609035849571228 0.0037501391489058733 0.24397709965705872
0.6528071761131287 0.08405736833810806 0.2594538927078247
0.10358134657144547 0.08747445791959763 0.09129020571708679
0.4558590054512024 0.053933583199977875 0.4664532542228699
0.17627893388271332 0.03602104261517525 0.07220824062824249
0.5691195130348206 0.05048990994691849 0.26009601354599
0.6221069693565369 0.11900720745325089 0.11165329068899155
0.7913659811019897 0.06549634784460068 0.14471057057380676
0.8002446889877319 0.06496073305606842 0.0431547649204731
0.408163845539093 0.15045037865638733 0.07546450942754745
0.7852093577384949 0.2547747492790222 0.14691969752311707
0.8301025629043579 0.13075806200504303 0.02227875590324402
0.28200164437294006 0.12174534797668457 0.06309646368026733
0.9834194183349609 0.003750161500647664 0.2453039586544037
0.04017426073551178 0.003750006202608347 0.25145629048347473
0.46196937561035156 0.18863025307655334 0.022291898727416992
0.7817746996879578 0.10739823430776596 0.04292789101600647
0.0897115096449852 0.035066213458776474 0.23098750412464142
0.3850603699684143 0.29701700806617737 0.02404439076781273
0.3936695456504822 0.1096319705247879 0.2579682469367981
0.28918492794036865 0.04812821373343468 0.05448560789227486
0.44959479570388794 0.15128399431705475 0.10553604364395142
0.07796475291252136 0.04758569225668907 0.17804713547229767
0.12922807037830353 0.10437818616628647 0.048983000218868256
0.38662412762641907 0.1599506139755249 0.01985660195350647
0.32868969440460205 0.3785820007324219 0.2125208079814911
0.38048234581947327 0.10202644765377045 0.018638504669070244
0.2035195529460907 0.023092735558748245 0.1966022551059723
0.4232991337776184 0.027053844183683395 0.08277004212141037
0.6368721723556519 0.28908097743988037 0.03236571326851845
0.6396046280860901 0.11448882520198822 0.05519600957632065
0.4550832211971283 0.37526246905326843 0.0038004715461283922
0.7383711338043213 0.04275409132242203 0.06003662943840027
0.8989847302436829 0.04071653634309769 0.25723403692245483
0.8470020294189453 0.27254435420036316 0.006299967411905527
0.6213508248329163 0.021298283711075783 0.23469674587249756
0.9962495565414429 0.018071359023451805 0.05528460070490837
0.8297998309135437 0.04360156133770943 0.02059667371213436
0.3070031702518463 0.07231324166059494 0.32316794991493225
0.05772893503308296 0.12188322842121124 0.0037501309998333454
0.2931007444858551 0.2546762228012085 0.03697017580270767
0.16462647914886475 0.13974925875663757 0.16766032576560974
0.003750183153897524 0.07630793750286102 0.20488238334655762
0.23246410489082336 0.04643702879548073 0.12466344982385635
0.42128634452819824 0.22986865043640137 0.06650010496377945
0.521404504776001 0.03467835113406181 0.19903689622879028
0.40073075890541077 0.0761771947145462 0.27732205390930176
0.5627757906913757 0.02149534784257412 0.43516960740089417
0.2611880600452423 0.0659915953874588 0.06771629303693771
0.1954662948846817 0.1549849510192871 0.01874065026640892
0.5245980024337769 0.08783252537250519 0.2159511148929596
0.8128479719161987 0.15760357677936554 0.041202180087566376
0.4522501826286316 0.08999712020158768 0.1386636197566986
0.8474763035774231 0.003750214818865061 0.06148158386349678
0.9010675549507141 0.018629927188158035 0.19673451781272888
0.28654414415359497 0.07758275419473648 0.1322217881679535
0.9962496757507324 0.017438480630517006 0.18729929625988007
0.9153968095779419 0.05937116593122482 0.06972083449363708
0.003750165458768606 0.02880534902215004 0.5039658546447754
0.05579596757888794 0.0037500490434467793 0.10147981345653534
0.12332314252853394 0.09607324004173279 0.10996248573064804
0.09362857788801193 0.10590463876724243 0.0037501801270991564
0.0037502218037843704 0.06307987123727798 0.12646770477294922
0.3364790081977844 0.04463951289653778 0.3263481855392456
0.09447161108255386 0.06529828161001205 0.0037502311170101166
0.30025625228881836 0.015389347448945045 0.242375448346138
0.10585720837116241 0.15308180451393127 0.016842497512698174
0.1376621574163437 0.015288619324564934 0.37887659668922424
0.21987715363502502 0.5096132159233093 0.0037605706602334976
0.20872250199317932 0.18447931110858917 0.049580883234739304
0.18745611608028412 0.10200677812099457 0.21195487678050995
0.47083932161331177 0.20882244408130646 0.022145992144942284
0.8129581212997437 0.003750072093680501 0.06788381189107895
0.28438565135002136 0.25235870480537415 0.2936646342277527
0.853190541267395 0.0037501100450754166 0.17214275896549225
0.5646510720252991 0.04250863566994667 0.37627509236335754
0.9814229011535645 0.02192372828722 0.23347918689250946
0.8833163380622864 0.1295330822467804 0.05206611007452011
0.930977463722229 0.1069987416267395 0.07455344498157501
0.9962494969367981 0.11381737142801285 0.003750099567696452
0.48837313055992126 0.13985183835029602 0.22550103068351746
0.49809184670448303 0.06096034497022629 0.26297008991241455
0.0892186388373375 0.04015784710645676 0.44496574997901917
0.08491703867912292 0.36518681049346924 0.1478525996208191
0.11126307398080826 0.12343499809503555 0.11835017055273056
0.15819445252418518 0.01832534745335579 0.47556886076927185
0.30573052167892456 0.35413774847984314 0.023367587476968765
0.003750193864107132 0.10844135284423828 0.38677340745925903
0.24034862220287323 0.41395455598831177 0.10050134360790253
0.3196110725402832 0.07937224209308624 0.31163084506988525
0.19296875596046448 0.0652744248509407 0.03560768440365791
0.3225410580635071 0.1453922688961029 0.08649058640003204
0.6416082978248596 0.04325079917907715 0.37288281321525574
0.16773615777492523 0.01560933142900467 0.16768622398376465
0.7599835395812988 0.03991185128688812 0.2668057084083557
0.9813183546066284 0.0037501156330108643 0.16304060816764832
0.23124372959136963 0.05599365383386612 0.22605180740356445
0.954879879951477 0.07791100442409515 0.16913239657878876
0.7092052698135376 0.2652825713157654 0.09396420419216156
0.5562752485275269 0.04985587298870087 0.06179956719279289
0.5383849143981934 0.0037500583566725254 0.03780737891793251
0.19908691942691803 0.07403023540973663 0.4060763418674469
0.2349894493818283 0.04840117320418358 0.18779371678829193
0.020245635882019997 0.048025231808423996 0.41675740480422974
0.0037500273901969194 0.01633884757757187 0.12748198211193085
0.4351532459259033 0.04644928500056267 0.26487234234809875
0.17842260003089905 0.05210099369287491 0.22153253853321075
0.1024307981133461 0.05245065689086914 0.020928887650370598
0.0501880943775177 0.004283656366169453 0.03691471368074417
0.1895359456539154 0.3768553137779236 0.1835254281759262
0.6066893339157104 0.09215132892131805 0.2720225751399994
0.8842402696609497 0.0037502110935747623 0.41981858015060425
0.345501571893692 0.10124306380748749 0.10806908458471298
0.6597305536270142 0.058364301919937134 0.3535703420639038
0.8147533535957336 0.0037501708138734102 0.3622855246067047
0.054227568209171295 0.09505032002925873 0.02417265996336937
0.9172026515007019 0.0037501913029700518 0.4206220507621765
0.9962494969367981 0.06364620476961136 0.24197836220264435
0.9322506189346313 0.003750209230929613 0.4707721769809723
0.9962494969367981 0.07201812416315079 0.043074119836091995
0.28849732875823975 0.12864606082439423 0.15465974807739258
0.26540130376815796 0.09332244098186493 0.06065065786242485
0.028497695922851562 0.06271298974752426 0.12415973097085953
0.05275115370750427 0.003750098403543234 0.15844367444515228
0.05972842499613762 0.11368336528539658 0.3020675778388977
0.11485432088375092 0.06000100448727608 0.46229204535484314
0.1622193157672882 0.5452449917793274 0.004792784806340933
0.23180396854877472 0.015606160275638103 0.09820972383022308
0.08439561724662781 0.16479498147964478 0.026266425848007202
0.022830577567219734 0.06739073246717453 0.2540845274925232
0.2552422285079956 0.0487138070166111 0.4472540318965912
0.09584947675466537 0.024464663118124008 0.5797351002693176
0.718636155128479 0.3019331991672516 0.041814081370830536
0.7136873006820679 0.0037500925827771425 0.47424349188804626
0.803641140460968 0.08057346194982529 0.13989271223545074
0.7759679555892944 0.13790243864059448 0.1301991045475006
0.7535724639892578 0.06651900708675385 0.18271228671073914
0.0037502304185181856 0.06770004332065582 0.1034807562828064
0.6645325422286987 0.053009044378995895 0.20852144062519073
0.15942183136940002 0.03472919389605522 0.25488904118537903
0.9962494969367981 0.06606535613536835 0.020556841045618057
0.29323166608810425 0.0684286504983902 0.055101316422224045
0.9500856399536133 0.3892199397087097 0.006086277775466442
0.7913995981216431 0.055573850870132446 0.2810862958431244
0.19111786782741547 0.23027579486370087 0.02739160880446434
0.2840207517147064 0.3065999150276184 0.20311936736106873
0.1788358986377716 0.06610070168972015 0.43051019310951233
0.3846661150455475 0.09528199583292007 0.31761229038238525
0.34747928380966187 0.0037500206381082535 0.46718350052833557
0.006500734947621822 0.3911783695220947 0.019856180995702744
0.36786311864852905 0.08703301101922989 0.37962666153907776
0.48566994071006775 0.022517424076795578 0.5579383969306946
0.2456522285938263 0.3022301495075226 0.003901983378455043
0.5350576043128967 0.3947611153125763 0.09605391323566437
0.17096444964408875 0.032499026507139206 0.4243393838405609
0.6937766075134277 0.014898387715220451 0.12167093902826309
0.7943083047866821 0.003750001545995474 0.45038995146751404
0.8014729619026184 0.02208530344069004 0.5540558099746704
0.6242902278900146 0.17681702971458435 0.10153206437826157
0.5273163318634033 0.09709913283586502 0.020849384367465973
0.686381995677948 0.2441045045852661 0.029383176937699318
0.517108678817749 0.06582345068454742 0.13392964005470276
0.3157590925693512 0.08641134202480316 0.10266466438770294
0.5708329081535339 0.04893101006746292 0.07315269857645035
0.5100817680358887 0.030156632885336876 0.5165880918502808
0.09887391328811646 0.0037501719780266285 0.5033546090126038
0.16066662967205048 0.0037501368205994368 0.43474245071411133
0.4913473129272461 0.016283312812447548 0.0037501107435673475
0.11017545312643051 0.04756898432970047 0.39578431844711304
0.5702075362205505 0.03912314027547836 0.24006333947181702
0.36844339966773987 0.47969287633895874 0.0037502411287277937
0.21839866042137146 0.04257741570472717 0.5630872845649719
0.29281169176101685 0.08887879550457001 0.044963087886571884
0.09655209630727768 0.01574687473475933 0.28596317768096924
0.6742016077041626 0.02423727884888649 0.4786282479763031
0.49110445380210876 0.017261778935790062 0.20809242129325867
0.4302859902381897 0.4597659111022949 0.006776377558708191
0.9106173515319824 0.07725828886032104 0.11447326838970184
0.9230760335922241 0.003750103758648038 0.5031617879867554
0.30985042452812195 0.19826456904411316 0.040802448987960815
0.7758288383483887 0.0037501107435673475 0.44927215576171875
