0.9962496757507324 0.03976151719689369 0.04939189925789833
0.5083693265914917 0.01838221587240696 0.40309128165245056
0.1476212739944458 0.03679152578115463 0.4818611145019531
0.4507506489753723 0.036104608327150345 0.5001909732818604
0.3558151125907898 0.012976845726370811 0.0037500455509871244
0.17682720720767975 0.42813974618911743 0.03376411646604538
0.3259476125240326 0.0693981796503067 0.447567880153656
0.06031312793493271 0.19301418960094452 0.012871024198830128
0.02017100341618061 0.07348956167697906 0.06010875105857849
0.2818933427333832 0.40027695894241333 0.21976575255393982
0.3410016894340515 0.08356454223394394 0.20004108548164368
0.09384723007678986 0.00375005672685802 0.306708961725235
0.0804862380027771 0.07047136127948761 0.13417913019657135
0.3808235824108124 0.013781262561678886 0.2616805136203766
0.3778540790081024 0.013921050354838371 0.03709948807954788
0.7268303632736206 0.12548324465751648 0.038925446569919586
0.5646426677703857 0.07476894557476044 0.2928723990917206
0.6200461983680725 0.00375004974193871 0.39679214358329773
0.617212176322937 0.05726219341158867 0.15758830308914185
0.9643686413764954 0.10865809768438339 0.03859412297606468
0.9828622937202454 0.33179235458374023 0.017155664041638374
0.6488767862319946 0.030959079042077065 0.09340968728065491
0.3840671181678772 0.015098403207957745 0.5318408012390137
0.5913599729537964 0.0037501701153814793 0.33165162801742554
0.5187602639198303 0.33138567209243774 0.005496243014931679
0.21964368224143982 0.03443934768438339 0.5321652889251709
0.3509063422679901 0.12540020048618317 0.2399049699306488
0.06230045482516289 0.013755572028458118 0.05873483419418335
0.16144298017024994 0.03646615892648697 0.22745096683502197
0.6842252612113953 0.06005435436964035 0.2730855941772461
0.25112107396125793 0.3589114248752594 0.003904805053025484
0.6393609642982483 0.23258551955223083 0.05697202682495117
0.40281811356544495 0.103448286652565 0.11496623605489731
0.6956926584243774 0.048306070268154144 0.08032609522342682
0.7680212259292603 0.020702868700027466 0.5908239483833313
0.8118400573730469 0.0037501449696719646 0.3806442618370056
0.6135240793228149 0.06830181926488876 0.11668097972869873
0.757666289806366 0.0037501517217606306 0.18750950694084167
0.8518520593643188 0.06682740151882172 0.206488698720932
0.3492148816585541 0.015498572960495949 0.26223546266555786
0.7479590177536011 0.1674305498600006 0.024570295587182045
0.6237024068832397 0.0374077744781971 0.3377312421798706
0.563107430934906 0.10159878432750702 0.15707162022590637
0.3485783338546753 0.015892954543232918 0.23938266932964325
0.39255404472351074 0.2126419097185135 0.07711409777402878
0.11926909536123276 0.060079269111156464 0.46241044998168945
0.7510868906974792 0.0037501193583011627 0.42013803124427795
0.5826090574264526 0.053979434072971344 0.3250916004180908
0.19646820425987244 0.03637205809354782 0.5085976719856262
0.09357140213251114 0.4341111183166504 0.11159767955541611
0.5001779794692993 0.06145399063825607 0.17561934888362885
0.24153092503547668 0.36169561743736267 0.055041320621967316
0.6842736005783081 0.04839862138032913 0.1295047551393509
0.7726601362228394 0.04692649468779564 0.3164396286010742
0.6022782325744629 0.06796440482139587 0.0869477167725563
0.5583721399307251 0.003750203875824809 0.15408121049404144
0.7599629163742065 0.003750243689864874 0.5332611799240112
0.8454335927963257 0.003750030416995287 0.21602603793144226
0.9612017869949341 0.15297538042068481 0.06348185986280441
0.5311673879623413 0.10858561098575592 0.1423308253288269
0.647553563117981 0.06049730256199837 0.0763242170214653
0.3624345362186432 0.11594532430171967 0.003750062780454755
0.6178146600723267 0.16773049533367157 0.023626137524843216
0.31219279766082764 0.008017833344638348 0.2006920576095581
0.6401681900024414 0.0037502325139939785 0.3796558380126953
0.9962495565414429 0.12125539779663086 0.06491567194461823
0.0037502192426472902 0.029010513797402382 0.5964398384094238
0.753646731376648 0.06563971191644669 0.0037500790785998106
0.0037501142360270023 0.016681145876646042 0.6080833077430725
0.09329520165920258 0.061879176646471024 0.18285474181175232
0.12875694036483765 0.4339147210121155 0.06783238798379898
0.06844831258058548 0.06687755882740021 0.21911880373954773
0.2631019949913025 0.02646154724061489 0.4300667345523834
0.36262908577919006 0.38762325048446655 0.04798781871795654
0.5499609708786011 0.122223399579525 0.09198034554719925
0.5011590719223022 0.003750006901100278 0.5876006484031677
0.9849575161933899 0.003750165458768606 0.4187081456184387
0.8571033477783203 0.003750030416995287 0.4469543397426605
0.27562588453292847 0.029018584638834 0.3522336483001709
0.6461693048477173 0.048186954110860825 0.09157384932041168
0.32622236013412476 0.3284004330635071 0.004010836128145456
0.9848178029060364 0.0037500225007534027 0.43996572494506836
0.31893816590309143 0.03050803206861019 0.16944390535354614
0.24367205798625946 0.026552800089120865 0.06093442440032959
0.7585127949714661 0.11179645359516144 0.04390323907136917
0.09620869904756546 0.007576805539429188 0.07863675057888031
0.051324885338544846 0.003750063944607973 0.09599889814853668
0.14488233625888824 0.4727286398410797 0.020032359287142754
0.3612573742866516 0.011915198527276516 0.3742583096027374
0.10425601154565811 0.009067181497812271 0.6093880534172058
0.3126709461212158 0.07456361502408981 0.4130874276161194
0.23703376948833466 0.0881190150976181 0.3635862469673157
0.46017399430274963 0.02890249527990818 0.24408388137817383
0.6568033695220947 0.10658583790063858 0.1488257348537445
0.14877350628376007 0.10893265902996063 0.09833802282810211
0.08544930070638657 0.032847993075847626 0.1583280861377716
0.3733052611351013 0.0037500441540032625 0.47688165307044983
0.30295616388320923 0.08630324900150299 0.0191807858645916
0.25194668769836426 0.04587256535887718 0.03512149304151535
0.8258247375488281 0.058744579553604126 0.28368109464645386
0.9286271929740906 0.022190237417817116 0.5306588411331177
0.6809712052345276 0.14530572295188904 0.1005910187959671
0.45241236686706543 0.2653971314430237 0.00375015614554286
0.44080081582069397 0.10975582897663116 0.22742287814617157
0.4570809304714203 0.3516930043697357 0.057035885751247406
0.5559805631637573 0.1252833902835846 0.0037501875776797533
0.3847976326942444 0.3734036982059479 0.15833884477615356
0.14530852437019348 0.017955154180526733 0.516844630241394
0.3707268238067627 0.05125882104039192 0.06446757912635803
0.607688307762146 0.0037502055056393147 0.38281217217445374
0.1124519482254982 0.02343805879354477 0.16240206360816956
0.021856088191270828 0.37693482637405396 0.004600646905601025
0.1251346468925476 0.003750158939510584 0.07878397405147552
0.48438745737075806 0.1999649703502655 0.026990532875061035
0.005677700042724609 0.10487532615661621 0.3451704978942871
0.0037501200567930937 0.0037501093465834856 0.3334531784057617
0.44312357902526855 0.06188857555389404 0.0681075006723404
0.8586897850036621 0.08598055690526962 0.2677202522754669
0.8263182640075684 0.023212438449263573 0.3731912076473236
0.779309093952179 0.055183716118335724 0.3325553238391876
0.49734705686569214 0.10926707834005356 0.26497581601142883
0.4041975140571594 0.2390497922897339 0.03466195613145828
0.688937246799469 0.0037502464838325977 0.5490149259567261
0.47677549719810486 0.2304399013519287 0.004646014422178268
0.40546125173568726 0.01407051645219326 0.281561940908432
0.5939590334892273 0.06889484822750092 0.12254127115011215
0.5123116970062256 0.33595818281173706 0.13926544785499573
0.30443817377090454 0.09639594703912735 0.09026207774877548
0.09238899499177933 0.05943404510617256 0.11481697857379913
0.10424204170703888 0.1470559984445572 0.026703575626015663
0.003750127274543047 0.09557771682739258 0.07286855578422546
0.12130653858184814 0.00375010771676898 0.5537598729133606
0.6903110146522522 0.12940755486488342 0.09997139871120453
0.27186843752861023 0.06479297578334808 0.2408098727464676
0.02053893730044365 0.06817626953125 0.19469471275806427
0.23850946128368378 0.047994229942560196 0.18471458554267883
0.03801582008600235 0.09610120207071304 0.329812228679657
0.9479201436042786 0.08207003027200699 0.26737427711486816
0.37809881567955017 0.03950349614024162 0.46514225006103516
0.06655388325452805 0.06818224489688873 0.3626820743083954
0.7632781863212585 0.25905898213386536 0.013445238582789898
0.6407566070556641 0.0037501384504139423 0.15799912810325623
0.7745654582977295 0.08453861624002457 0.1761525571346283
0.4846040606498718 0.021301157772541046 0.0037500050384551287
0.8161470293998718 0.06687846779823303 0.003750025061890483
0.8993157148361206 0.3264153003692627 0.010513250716030598
0.3916233777999878 0.19399981200695038 0.08657846599817276
0.11276674270629883 0.036487456411123276 0.2753736972808838
0.0903775617480278 0.007294942624866962 0.12117568403482437
0.005512505304068327 0.4061726927757263 0.018455425277352333
0.9750110507011414 0.12320315837860107 0.1124093309044838
0.09702537953853607 0.21125528216362 0.004162044730037451
0.48488569259643555 0.019442327320575714 0.5827171802520752
0.2893918752670288 0.03195931389927864 0.3337697386741638
0.26428279280662537 0.31578201055526733 0.12734061479568481
0.54776531457901 0.01895095594227314 0.05226864293217659
0.3942721486091614 0.1666037142276764 0.22839932143688202
0.2681129574775696 0.14727351069450378 0.0037500665057450533
0.3226041793823242 0.0037502218037843704 0.4602275490760803
0.46389684081077576 0.12971341609954834 0.021140139549970627
0.7625428438186646 0.05288677662611008 0.19062206149101257
0.22690527141094208 0.0037500441540032625 0.23378582298755646
0.04921343922615051 0.07744182646274567 0.39095601439476013
0.4074516296386719 0.013108491897583008 0.1903984099626541
0.413212388753891 0.4768596291542053 0.02209821715950966
0.9275847673416138 0.003750195261090994 0.5724507570266724
0.47420892119407654 0.33874017000198364 0.1338103711605072
0.4451308846473694 0.16725336015224457 0.12232104688882828
0.6349778771400452 0.003750111907720566 0.0378422811627388
0.3680049777030945 0.1425711065530777 0.050913773477077484
0.029562553390860558 0.003750040428712964 0.038511697202920914
0.44253048300743103 0.003750209929421544 0.13723453879356384
0.38878756761550903 0.0037500341422855854 0.13040480017662048
0.26563331484794617 0.10191800445318222 0.31088167428970337
0.6850985288619995 0.00375021668151021 0.29162684082984924
0.1467200219631195 0.07786498963832855 0.39872050285339355
0.4635923504829407 0.0037502367049455643 0.17186066508293152
0.27042847871780396 0.0382765457034111 0.6253051161766052
0.6603041887283325 0.1782776564359665 0.003750218078494072
0.09494096785783768 0.015385478734970093 0.3773253858089447
0.6601905822753906 0.0037502143532037735 0.16674330830574036
0.7242366075515747 0.01761510595679283 0.05494585633277893
0.7723132967948914 0.0037502318155020475 0.44496145844459534
0.528605580329895 0.09404824674129486 0.19315913319587708
0.20146727561950684 0.05319250747561455 0.34697169065475464
0.8127821087837219 0.018041100353002548 0.2460084855556488
0.8845053911209106 0.02244514226913452 0.373404324054718
0.6798115968704224 0.29249778389930725 0.0037501738406717777
0.25231045484542847 0.08134522289037704 0.13662132620811462
0.606798529624939 0.07851027697324753 0.003750055329874158
0.06865338981151581 0.058865319937467575 0.1673613041639328
0.14301654696464539 0.11409418284893036 0.003750210627913475
0.3302247226238251 0.003750110510736704 0.5364362001419067
0.7190237045288086 0.0037500313483178616 0.0037500113248825073
0.2015683650970459 0.007457273546606302 0.5646672248840332
0.44028085470199585 0.2775629460811615 0.05954020097851753
0.0037501943297684193 0.009796997532248497 0.0037501018960028887
0.41144341230392456 0.01449400931596756 0.42369866371154785
0.0037501405458897352 0.07927399128675461 0.07124479860067368
0.003750009462237358 0.01626647636294365 0.4878017008304596
0.23743708431720734 0.08046380430459976 0.39485102891921997
0.5878923535346985 0.07695484161376953 0.21938355267047882
0.6628724336624146 0.16453245282173157 0.024689892306923866
0.3438533544540405 0.12651190161705017 0.19874507188796997
0.5133939981460571 0.12344777584075928 0.2604665160179138
0.9672176241874695 0.00375002296641469 0.39214006066322327
0.778615415096283 0.02611662819981575 0.08083788305521011
0.0037501174956560135 0.017397506162524223 0.33572861552238464
0.2074909508228302 0.10802756249904633 0.140187069773674
0.2206471860408783 0.3259983956813812 0.17946137487888336
0.4026544988155365 0.003750092815607786 0.4321814477443695
0.21131980419158936 0.05728403478860855 0.2834475040435791
0.41037315130233765 0.06436783075332642 0.1997111737728119
0.8954340219497681 0.2221945971250534 0.1314511001110077
0.6324833631515503 0.04712051525712013 0.15968403220176697
0.003750162199139595 0.08580654114484787 0.04104086384177208
0.21686002612113953 0.06042106822133064 0.1894443929195404
0.3101676106452942 0.016309643164277077 0.27931052446365356
0.10824576765298843 0.07638651132583618 0.3537769615650177
0.5041800737380981 0.015383507125079632 0.26353636384010315
0.48438820242881775 0.11616811901330948 0.0037500914186239243
0.4286208748817444 0.33593618869781494 0.08456186950206757
0.599422037601471 0.0576493926346302 0.27245569229125977
0.446126788854599 0.18153513967990875 0.0037500127218663692
0.6221542954444885 0.028767621144652367 0.01858121156692505
0.3587159514427185 0.2668127417564392 0.23672862350940704
0.47657132148742676 0.03676475211977959 0.16683615744113922
0.7840324640274048 0.07687429338693619 0.14517100155353546
0.8565509915351868 0.04032166674733162 0.07060258835554123
0.1794590801000595 0.29037123918533325 0.008307980373501778
0.8441394567489624 0.05581865459680557 0.10016654431819916
0.8073189854621887 0.12057578563690186 0.003750002011656761
0.41182708740234375 0.0037501156330108643 0.3155277967453003
0.5899795293807983 0.0037501524202525616 0.1414773315191269
0.16708514094352722 0.011972293257713318 0.4130297601222992
0.6272224187850952 0.06811417639255524 0.2284514158964157
0.09277074038982391 0.003750137984752655 0.06473135203123093
0.05237166956067085 0.04777493327856064 0.23015224933624268
0.04311085119843483 0.06969353556632996 0.08283150941133499
0.3731861412525177 0.38234245777130127 0.015974294394254684
0.9046043157577515 0.09807316213846207 0.0037501808255910873
0.2507919669151306 0.09464989602565765 0.24728071689605713
0.20933692157268524 0.00375021668151021 0.18622790277004242
0.8090254664421082 0.1871548444032669 0.034336693584918976
0.0037501584738492966 0.07545149326324463 0.169265478849411
0.6215575933456421 0.003750146832317114 0.09618332982063293
0.6795397996902466 0.0037501566112041473 0.05023406818509102
0.8523639440536499 0.04315910488367081 0.14491905272006989
0.8666790127754211 0.07708217203617096 0.063047394156456
0.8873612284660339 0.04333820194005966 0.32254406809806824
0.7100054621696472 0.23962292075157166 0.061354123055934906
0.6807249784469604 0.11531420052051544 0.14226993918418884
0.524456262588501 0.015247593633830547 0.09467782825231552
0.7783701419830322 0.00375011982396245 0.2101985216140747
0.003750111907720566 0.06436572223901749 0.1839713752269745
0.6892768144607544 0.07011272013187408 0.18793614208698273
0.09970174729824066 0.07871113717556 0.18689200282096863
0.15277130901813507 0.047572486102581024 0.19903568923473358
0.037126924842596054 0.04503926262259483 0.06552285701036453
0.017366567626595497 0.04737616330385208 0.10607907921075821
0.6566967368125916 0.09708453714847565 0.13016517460346222
0.20171768963336945 0.06526876986026764 0.29484474658966064
0.18981315195560455 0.045104026794433594 0.017990093678236008
0.1531819999217987 0.0226990208029747 0.3285585045814514
0.4552759528160095 0.011749389581382275 0.034587930887937546
0.7243460416793823 0.03996111825108528 0.05798378586769104
0.748869776725769 0.0573558509349823 0.10610244423151016
0.3944169878959656 0.05207645893096924 0.06801432371139526
0.6798667907714844 0.00375014403834939 0.02874191477894783
0.6566835641860962 0.06075675040483475 0.05595901608467102
0.7987546920776367 0.08638035506010056 0.05243603512644768
0.7932349443435669 0.1865164041519165 0.04100016504526138
0.8697822690010071 0.036074358969926834 0.036737747490406036
0.0037502036429941654 0.029930811375379562 0.37982746958732605
0.4848737120628357 0.003750067902728915 0.32651978731155396
0.40426570177078247 0.16192689538002014 0.13770294189453125
0.14529772102832794 0.07663752138614655 0.2530570328235626
0.1847221851348877 0.06578589230775833 0.0574241578578949
0.9821208119392395 0.0037500623147934675 0.02364746667444706
0.08428298681974411 0.0037501149345189333 0.2749573886394501
0.11239399760961533 0.03961977735161781 0.24509362876415253
0.13649427890777588 0.033095795661211014 0.3538540005683899
0.39801597595214844 0.04013771936297417 0.4031931757926941
0.024836810305714607 0.035894691944122314 0.4945649206638336
0.4457674026489258 0.22146737575531006 0.02298581227660179
0.5615298748016357 0.028044238686561584 0.3450010418891907
0.3613467216491699 0.020073283463716507 0.4505558907985687
0.7716570496559143 0.11685974895954132 0.1208832710981369
0.8905488848686218 0.08991938084363937 0.003750171512365341
0.8864984512329102 0.20461876690387726 0.09012334048748016
0.9785693883895874 0.1630912572145462 0.0037502131890505552
0.6438125371932983 0.0037501081824302673 0.003750026226043701
0.6665195226669312 0.065730519592762 0.07476140558719635
0.735824704170227 0.02823694981634617 0.02083856239914894
0.3493420481681824 0.07225236296653748 0.10930873453617096
0.018303023651242256 0.07984074205160141 0.039451636373996735
0.20122890174388885 0.09925413876771927 0.21407344937324524
0.25689128041267395 0.03510534018278122 0.3452679514884949
0.2330668866634369 0.4290526509284973 0.020542893558740616
0.19162878394126892 0.038036592304706573 0.06372106820344925
0.0037500723265111446 0.014498683623969555 0.4005938470363617
0.020716045051813126 0.028613939881324768 0.22732380032539368
0.3157823979854584 0.014192240312695503 0.3331815302371979
0.42595070600509644 0.0037500434555113316 0.45613893866539
0.4830126166343689 0.0721089318394661 0.09714408963918686
0.09421743452548981 0.015454891137778759 0.18354608118534088
0.6208319664001465 0.05296654254198074 0.3049843907356262
0.4376538395881653 0.07450737059116364 0.11496458202600479
0.7243468761444092 0.0427461713552475 0.32595252990722656
0.8487781286239624 0.0161704383790493 0.13741321861743927
0.9285786747932434 0.023607905954122543 0.27966904640197754
0.9822859764099121 0.04416755959391594 0.21346119046211243
0.6502690315246582 0.2626328468322754 0.09140398353338242
0.38215357065200806 0.1252378523349762 0.07222051918506622
0.9962495565414429 0.14082777500152588 0.0037500467151403427
0.5821455121040344 0.09453747421503067 0.026778126135468483
0.06532739102840424 0.030972471460700035 0.05176738649606705
0.2560521960258484 0.02319861575961113 0.4679749608039856
0.16661211848258972 0.048804786056280136 0.44726672768592834
0.2028694599866867 0.0037501477636396885 0.45406073331832886
0.4310477375984192 0.2157050371170044 0.03007436729967594
0.4509197771549225 0.03145573288202286 0.3362849950790405
0.030405765399336815 0.03163979947566986 0.18875159323215485
0.05484669655561447 0.08341831713914871 0.3347395062446594
0.0060575976967811584 0.11817160993814468 0.1992640197277069
0.5672914385795593 0.05282013863325119 0.29005640745162964
0.29177752137184143 0.3017089366912842 0.004110230132937431
0.658750593662262 0.10814867168664932 0.10063288360834122
0.5145944356918335 0.08490175008773804 0.058068424463272095
0.8663552403450012 0.11554192006587982 0.06575573235750198
0.9670134782791138 0.026718417182564735 0.02034590393304825
0.8831381797790527 0.19300946593284607 0.051452506333589554
0.9962495565414429 0.1093149185180664 0.11610706895589828
0.9962495565414429 0.11749774217605591 0.13120678067207336
0.7481530904769897 0.06096761301159859 0.12423404306173325
0.2854726016521454 0.3446863293647766 0.021257411688566208
0.9214128255844116 0.04442455247044563 0.003750038566067815
0.12877804040908813 0.020653612911701202 0.003750227391719818
0.3128146529197693 0.14050863683223724 0.03777416795492172
0.6987649202346802 0.00375005672685802 0.2596898376941681
0.4748353362083435 0.09615002572536469 0.30882495641708374
0.5931280851364136 0.044131599366664886 0.0037501410115510225
0.8783351182937622 0.13887949287891388 0.13605639338493347
0.48243898153305054 0.19363972544670105 0.0037501926999539137
0.2675890326499939 0.07810088992118835 0.3578110933303833
0.4402655065059662 0.034793443977832794 0.5265285968780518
0.8974767923355103 0.0037501584738492966 0.003750112373381853
0.25610432028770447 0.09074002504348755 0.223293736577034
0.1555030792951584 0.014595334418118 0.36628538370132446
0.7258304357528687 0.1143825501203537 0.14629358053207397
0.4044281542301178 0.17297473549842834 0.028648993000388145
0.48182162642478943 0.05515884608030319 0.1741926372051239
0.9817025065422058 0.14014920592308044 0.0037500704638659954
0.7664331197738647 0.283410906791687 0.007174855563789606
0.6424607634544373 0.04987247288227081 0.06310780346393585
0.8987534642219543 0.15461529791355133 0.036416225135326385
0.969391942024231 0.10450489819049835 0.12342629581689835
0.9962494969367981 0.0038295339327305555 0.003750038566067815
0.3154004216194153 0.07816603034734726 0.26598697900772095
0.45599716901779175 0.0037501477636396885 0.44579729437828064
0.7134689688682556 0.16405557096004486 0.07513637840747833
0.7296624779701233 0.070941261947155 0.2572163939476013
0.20308654010295868 0.017043566331267357 0.3498101830482483
0.38179415464401245 0.0037501510232686996 0.4925674796104431
0.7091884016990662 0.1133432537317276 0.14667543768882751
0.5226075649261475 0.029933735728263855 0.03729521483182907
0.5988721251487732 0.045453041791915894 0.1368892937898636
0.0903206318616867 0.050214983522892 0.052222300320863724
0.3554244637489319 0.2101261168718338 0.050385404378175735
0.7405697703361511 0.24577835202217102 0.06037214398384094
0.39715394377708435 0.08114425837993622 0.07198895514011383
0.5676981210708618 0.2391376793384552 0.0037500865291804075
0.7791972160339355 0.062014929950237274 0.13452768325805664
0.9166620373725891 0.061849214136600494 0.13645489513874054
0.9353255033493042 0.03026682510972023 0.113975390791893
0.5130022764205933 0.015986155718564987 0.2835128903388977
0.19296200573444366 0.003750154282897711 0.29973989725112915
0.885042667388916 0.24204805493354797 0.04159409552812576
0.9461631774902344 0.11148899793624878 0.057950329035520554
0.9320634007453918 0.12457636743783951 0.022820839658379555
0.7704172730445862 0.19549517333507538 0.0037501160986721516
0.1565673053264618 0.043633200228214264 0.03680435195565224
0.3487204611301422 0.0037502155173569918 0.4172138571739197
0.09419159591197968 0.4021194577217102 0.12856529653072357
0.4212115705013275 0.4780000150203705 0.01690082624554634
0.9962495565414429 0.0037500225007534027 0.2870466113090515
0.3909565806388855 0.13151894509792328 0.14564695954322815
0.0037501021288335323 0.09783973544836044 0.18484866619110107
0.07682250440120697 0.01044837012887001 0.0037502124905586243
0.8234289288520813 0.1413678675889969 0.025059854611754417
0.8246208429336548 0.06908100843429565 0.24520032107830048
0.0037679546512663364 0.11190791428089142 0.23711255192756653
0.8152724504470825 0.051329247653484344 0.018975893035531044
0.9426851272583008 0.10858014971017838 0.020847495645284653
0.6308245658874512 0.08987712115049362 0.11087532341480255
0.9319226145744324 0.03534188121557236 0.21219047904014587
0.8664311170578003 0.12941116094589233 0.05846042186021805
0.9962494969367981 0.027070799842476845 0.3560119569301605
0.4048731327056885 0.04427814111113548 0.20379912853240967
0.8540455102920532 0.1222321018576622 0.07791884243488312
0.09920812398195267 0.0179046131670475 0.43404096364974976
0.8090280294418335 0.0037500958424061537 0.20261307060718536
0.10356273502111435 0.03140384703874588 0.3240261375904083
0.1759345531463623 0.10522160679101944 0.0037501738406717777
0.4893869459629059 0.15081964433193207 0.09037966281175613
0.1638127565383911 0.003750099567696452 0.5713434219360352
0.05629356577992439 0.0037501323968172073 0.4827229082584381
0.6606823205947876 0.322868674993515 0.017265399917960167
0.5294885635375977 0.07901574671268463 0.24730932712554932
0.48073410987854004 0.03733854740858078 0.3499038815498352
0.05469726398587227 0.04486208036541939 0.058668963611125946
0.747221052646637 0.0037501067854464054 0.20003290474414825
0.6232159733772278 0.050567783415317535 0.018876131623983383
0.5610166788101196 0.3001152276992798 0.1454382687807083
0.954913318157196 0.003750183852389455 0.27643293142318726
0.9506850242614746 0.036956291645765305 0.19677738845348358
0.9525290727615356 0.02297111786901951 0.4895443916320801
0.38341885805130005 0.4158400595188141 0.025289585813879967
0.9962496757507324 0.20770537853240967 0.0037502343766391277
0.4169706404209137 0.20938417315483093 0.0037500213366001844
0.14482492208480835 0.04730833321809769 0.3523734211921692
0.6001986265182495 0.10999105125665665 0.20251807570457458
0.342460572719574 0.0171088594943285 0.0037500220350921154
0.7413179278373718 0.003750064643099904 0.2861662805080414
0.04000690579414368 0.050653450191020966 0.4118408262729645
0.32424062490463257 0.06554587185382843 0.40597003698349
0.2517006993293762 0.05459456518292427 0.2397511750459671
0.2202632874250412 0.016274865716695786 0.35744988918304443
0.4864180088043213 0.003750081406906247 0.20181336998939514
0.3564308285713196 0.16723576188087463 0.08538058400154114
0.7418341040611267 0.015172457322478294 0.13092206418514252
0.0773489773273468 0.01749914512038231 0.21994653344154358
0.24740548431873322 0.09284573048353195 0.1942540407180786
0.41248613595962524 0.0037501181941479445 0.19530490040779114
0.6445204019546509 0.11665384471416473 0.2103595733642578
0.6572055816650391 0.10736753791570663 0.2444123923778534
0.7207136154174805 0.0776287168264389 0.2001468688249588
0.41143855452537537 0.10703887790441513 0.10053764283657074
0.7347968816757202 0.09031490236520767 0.23010878264904022
0.3807714283466339 0.3650225102901459 0.0037638917565345764
0.7155110239982605 0.0831090658903122 0.2512302100658417
0.6554504632949829 0.06507495045661926 0.02075320854783058
0.48053187131881714 0.0037500266917049885 0.1731850802898407
0.362684965133667 0.0037502076011151075 0.3031284809112549
0.6726856231689453 0.0037500218022614717 0.3856545090675354
0.3096419870853424 0.30188146233558655 0.027591999620199203
0.006266314536333084 0.11354108154773712 0.3695550560951233
0.29900187253952026 0.13475337624549866 0.1487114131450653
0.5462557077407837 0.13789120316505432 0.2278398722410202
0.43228620290756226 0.08044622838497162 0.37707406282424927
0.17041777074337006 0.0037502176128327847 0.3971048593521118
0.045252300798892975 0.053393177688121796 0.4936216473579407
0.7527825832366943 0.10668568313121796 0.10745178163051605
0.019899487495422363 0.028139442205429077 0.3020213544368744
0.4252828061580658 0.024940628558397293 0.13343365490436554
0.7423191070556641 0.01645430363714695 0.21395087242126465
0.4394892752170563 0.015173569321632385 0.18433421850204468
0.9695138931274414 0.16688573360443115 0.05399046093225479
0.07247884571552277 0.0037500117905437946 0.41180092096328735
0.3078334629535675 0.03300592303276062 0.18658240139484406
0.7157803773880005 0.0851178914308548 0.039114344865083694
0.9308401346206665 0.0037502492778003216 0.02258322946727276
0.7258633971214294 0.06293343752622604 0.08271535485982895
0.04901142790913582 0.09164602309465408 0.3455023169517517
0.3928601145744324 0.018936580047011375 0.5110856294631958
0.3404861092567444 0.06255045533180237 0.34555310010910034
0.42124834656715393 0.025213584303855896 0.26840290427207947
0.4549717903137207 0.03580696880817413 0.5381991267204285
0.38415759801864624 0.043804965913295746 0.41399717330932617
0.25699299573898315 0.06257235258817673 0.4552149176597595
0.18661648035049438 0.044557906687259674 0.1797805279493332
0.31947100162506104 0.011791733093559742 0.04671427980065346
0.7049710750579834 0.06884579360485077 0.11527164280414581
0.5660083889961243 0.23814448714256287 0.046638257801532745
0.4970943033695221 0.020986419171094894 0.2787204086780548
0.6015486717224121 0.23303058743476868 0.12160070240497589
0.7475286722183228 0.033936504274606705 0.22389614582061768
0.7715702056884766 0.020577415823936462 0.2750409245491028
0.8933167457580566 0.10490179061889648 0.13785478472709656
0.9962494969367981 0.022883780300617218 0.44551029801368713
0.3846397399902344 0.052727699279785156 0.14684845507144928
0.3605124354362488 0.01609622687101364 0.18736281991004944
0.4172841012477875 0.037576738744974136 0.05318451672792435
0.9634499549865723 0.1350547969341278 0.00375005672685802
0.15374036133289337 0.08605058491230011 0.3063814043998718
0.011769468896090984 0.0037502434570342302 0.0037501025944948196
0.12265195697546005 0.003750040428712964 0.5285207033157349
0.02707485854625702 0.3157818913459778 0.0925445482134819
0.12069151550531387 0.12636983394622803 0.08768574893474579
0.4356142580509186 0.01971474476158619 0.4569145143032074
0.6220265626907349 0.0037502392660826445 0.5624423027038574
0.4771011769771576 0.04552900046110153 0.0190918929874897
0.11336079984903336 0.06819793581962585 0.4300405979156494
0.5199857950210571 0.003750202478840947 0.17004655301570892
0.333442747592926 0.27232739329338074 0.01986675336956978
0.09215682744979858 0.0844717025756836 0.14774452149868011
0.320254921913147 0.0169841181486845 0.15443304181098938
0.2449699193239212 0.07808463275432587 0.0788261890411377
0.197261244058609 0.08625119924545288 0.19373032450675964
0.8878649473190308 0.06603635102510452 0.21956667304039001
0.7467986941337585 0.28065910935401917 0.009994911029934883
0.9962494969367981 0.13200145959854126 0.02175416797399521
0.018975434824824333 0.017001142725348473 0.2853323221206665
0.4803849756717682 0.1789524108171463 0.1083780974149704
0.8465495109558105 0.07251827418804169 0.05644334480166435
0.1571597158908844 0.014130855910480022 0.0037501174956560135
0.0037501961924135685 0.08596649020910263 0.02013051137328148
0.11322104930877686 0.09228400886058807 0.05954468995332718
0.10589788109064102 0.029783079400658607 0.12355675548315048
0.08309181779623032 0.03191462904214859 0.18739137053489685
0.2789701819419861 0.02706419862806797 0.5912318825721741
0.1253991276025772 0.0037500527687370777 0.4974212050437927
0.20965078473091125 0.3612857460975647 0.07263412326574326
0.3298085033893585 0.02533520758152008 0.33437833189964294
0.07336582988500595 0.24949736893177032 0.046243663877248764
0.09951956570148468 0.0037502076011151075 0.05035034567117691
0.4517335295677185 0.06992016732692719 0.30275702476501465
0.753253698348999 0.0037501375190913677 0.253966361284256
0.04346637800335884 0.08041013777256012 0.3164915144443512
0.9495652914047241 0.11667487770318985 0.040709108114242554
0.6481719613075256 0.2414221316576004 0.03212587535381317
0.837643027305603 0.017432434484362602 0.1606367528438568
0.7343413233757019 0.030896281823515892 0.12301119416952133
0.5283827185630798 0.06331819295883179 0.0037501384504139423
0.43861156702041626 0.0037501375190913677 0.10342378914356232
0.4787634313106537 0.07936424762010574 0.143214613199234
0.12599894404411316 0.0037501943297684193 0.2958160638809204
0.215683251619339 0.38839903473854065 0.07474897056818008
0.3739458918571472 0.09464453905820847 0.30656203627586365
0.2992505729198456 0.1191338300704956 0.0654091164469719
0.2693612277507782 0.02978753112256527 0.6085859537124634
0.07827601581811905 0.0697203278541565 0.4148526191711426
0.5447574853897095 0.0037500555627048016 0.36571571230888367
0.10377857834100723 0.015100503340363503 0.3338974416255951
0.44022464752197266 0.04631880298256874 0.262702614068985
0.7580982446670532 0.02281869575381279 0.4379156231880188
0.5346195101737976 0.0037501815240830183 0.16259747743606567
0.003750130534172058 0.018070828169584274 0.47170940041542053
0.931285560131073 0.003750185715034604 0.4429696202278137
0.9547455906867981 0.00375022878870368 0.3649432063102722
0.8903316259384155 0.06106458976864815 0.20184564590454102
0.3851451873779297 0.1454065442085266 0.032382167875766754
0.8828802108764648 0.022911418229341507 0.39316362142562866
0.719774603843689 0.17388567328453064 0.05099259689450264
0.1362771987915039 0.003750066738575697 0.39986392855644226
0.38355398178100586 0.010386844165623188 0.06178318336606026
0.9482536315917969 0.06771528720855713 0.07295376807451248
0.15481022000312805 0.03360382094979286 0.05324394628405571
0.3045356571674347 0.09022191911935806 0.20818571746349335
0.10328726470470428 0.059325121343135834 0.45262035727500916
0.16896763443946838 0.023912351578474045 0.021907852962613106
0.4684389531612396 0.06588034331798553 0.26349562406539917
0.18901976943016052 0.10021964460611343 0.18420064449310303
0.21622495353221893 0.07784350216388702 0.28719112277030945
0.5341802835464478 0.03293343260884285 0.22757390141487122
0.9206889271736145 0.017210442572832108 0.11285350471735
0.18524853885173798 0.2733819782733917 0.24736011028289795
0.5081530809402466 0.0544397309422493 0.4110601842403412
0.4248894155025482 0.22246555984020233 0.0038281355518847704
0.7212178111076355 0.003750213887542486 0.5687786936759949
0.9486651420593262 0.08578269928693771 0.0973995253443718
0.9106653928756714 0.311840683221817 0.0037574477028101683
0.5702780485153198 0.3807901442050934 0.003949393518269062
0.8050510287284851 0.1719602644443512 0.15419350564479828
0.7783238887786865 0.023091977462172508 0.4880469739437103
0.19605152308940887 0.10755356401205063 0.00375024089589715
0.009059510193765163 0.20029596984386444 0.05855885148048401
0.39522749185562134 0.041531190276145935 0.530462384223938
0.370898574590683 0.016383813694119453 0.3356098532676697
0.048616115003824234 0.0037501349579542875 0.017877353355288506
0.2868047058582306 0.016187604516744614 0.3236596882343292
0.3193906843662262 0.1116720661520958 0.25657397508621216
0.06409047544002533 0.0037500604521483183 0.2762455642223358
0.5195280313491821 0.0037500225007534027 0.3865208625793457
0.03666101023554802 0.21640057861804962 0.0037906586658209562
0.3811011016368866 0.0037501398473978043 0.6007732152938843
0.38632839918136597 0.135817289352417 0.17810150980949402
0.9336270093917847 0.08410915732383728 0.14285722374916077
0.7347578406333923 0.015986213460564613 0.036432161927223206
0.7941521406173706 0.003750081639736891 0.49856361746788025
0.6103239059448242 0.02196553535759449 0.46587419509887695
0.5441284775733948 0.06362412869930267 0.21259519457817078
0.7743794918060303 0.0037502378690987825 0.021966062486171722
0.9797502756118774 0.01890409179031849 0.26589539647102356
0.946851909160614 0.12310244143009186 0.08276267349720001
0.9951416850090027 0.14675669372081757 0.10930068790912628
0.5535908341407776 0.0037502069026231766 0.1362314224243164
0.18951421976089478 0.025869514793157578 0.3020903468132019
0.7372574806213379 0.09271635115146637 0.1199326291680336
0.6349659562110901 0.1021033376455307 0.07297758758068085
0.05345001071691513 0.015615725889801979 0.12538504600524902
0.8112810254096985 0.10884497314691544 0.025058606639504433
0.027874920517206192 0.4206818640232086 0.003957696259021759
0.039046745747327805 0.0037500120233744383 0.4980904161930084
0.28127652406692505 0.47328105568885803 0.04760108143091202
0.17339304089546204 0.11392092704772949 0.19439317286014557
0.05896718055009842 0.10100674629211426 0.14371582865715027
0.39398398995399475 0.05647694319486618 0.20266187191009521
0.32206204533576965 0.07820411026477814 0.3731735944747925
0.10915547609329224 0.012737195007503033 0.03789183497428894
0.9038673639297485 0.3055322766304016 0.015040688216686249
0.46828967332839966 0.13471360504627228 0.21632711589336395
0.06684333831071854 0.05395243689417839 0.12960058450698853
0.024559324607253075 0.01251112949103117 0.11509440839290619
0.701472282409668 0.08116770535707474 0.0037502185441553593
0.9724330902099609 0.10492356866598129 0.24270093441009521
0.9458762407302856 0.0508485846221447 0.22967275977134705
0.5422444343566895 0.10498040914535522 0.05765976756811142
0.9711324572563171 0.0037501598708331585 0.537193775177002
0.7465531229972839 0.042831238359212875 0.09383977949619293
0.2476688176393509 0.19297707080841064 0.014703094959259033
0.020119067281484604 0.0037502397317439318 0.44062700867652893
0.06498067080974579 0.07621356844902039 0.28240153193473816
0.5947136878967285 0.0965498834848404 0.21644020080566406
0.4022323489189148 0.012675093486905098 0.24019336700439453
0.7046581506729126 0.003750115167349577 0.2888104319572449
0.31082436442375183 0.003750027623027563 0.346950501203537
0.5630940198898315 0.012538209557533264 0.054640866816043854
0.1627684384584427 0.06922631710767746 0.39630579948425293
0.3790060579776764 0.030894111841917038 0.28261640667915344
0.9685205221176147 0.01795523799955845 0.1995803862810135
0.7787328958511353 0.23620013892650604 0.0037500974722206593
0.6189633011817932 0.0874534398317337 0.14580389857292175
0.7048686146736145 0.0037500611506402493 0.5785799026489258
0.5011917948722839 0.0037500765174627304 0.2091604769229889
0.4385702610015869 0.01534464955329895 0.21792003512382507
0.6495689153671265 0.07699846476316452 0.08284767717123032
0.9476355314254761 0.09773896634578705 0.04055013507604599
0.9295476675033569 0.0037500374019145966 0.344896525144577
0.6171679496765137 0.17915304005146027 0.04098884388804436
0.24199751019477844 0.0037500630132853985 0.6260378956794739
0.509738028049469 0.1816978007555008 0.025257712230086327
0.2725883722305298 0.15145254135131836 0.09465477615594864
0.03361254185438156 0.017244728282094002 0.3188352584838867
0.9962496757507324 0.06042703241109848 0.15339389443397522
0.09550358355045319 0.04840167984366417 0.09119225293397903
0.3152453303337097 0.03864504396915436 0.5304283499717712
0.6935994029045105 0.034138940274715424 0.1794579029083252
0.7034252882003784 0.04189766198396683 0.12520071864128113
0.06726228445768356 0.045124251395463943 0.15412327647209167
0.9280775189399719 0.11033613979816437 0.07207302004098892
0.4103100299835205 0.0666399747133255 0.060848016291856766
0.6378498673439026 0.02213842049241066 0.6181697845458984
0.35587164759635925 0.04149418696761131 0.13504387438297272
0.5594099760055542 0.07050831615924835 0.04825236648321152
0.5865389704704285 0.00375020457431674 0.17473003268241882
0.9814503788948059 0.08942592144012451 0.05672873929142952
0.3302744925022125 0.08249510824680328 0.05161486938595772
0.4543994963169098 0.2307714968919754 0.003750082105398178
0.8962397575378418 0.00375005672685802 0.04222390428185463
0.13563129305839539 0.026287119835615158 0.10197322070598602
0.9580363035202026 0.3296075165271759 0.028378915041685104
0.14670562744140625 0.003750234143808484 0.4218326210975647
0.6607083678245544 0.06145113706588745 0.003750221338123083
0.0410241074860096 0.05877045542001724 0.3661865293979645
0.020950183272361755 0.003750127973034978 0.40052852034568787
0.650429904460907 0.003750141244381666 0.08917738497257233
0.8435007333755493 0.1313926726579666 0.11394990980625153
0.12241431325674057 0.003750098869204521 0.33104121685028076
0.19110311567783356 0.07943520694971085 0.32556360960006714
0.28865528106689453 0.01212176214903593 0.2610965371131897
0.10409389436244965 0.022708585485816002 0.10967947542667389
0.23742768168449402 0.0641360953450203 0.0037502371706068516
0.8947854042053223 0.003750111209228635 0.13602665066719055
0.7309287786483765 0.2314092218875885 0.053158264607191086
0.41037020087242126 0.41747814416885376 0.0669100284576416
0.9441547393798828 0.003750080708414316 0.35358327627182007
0.844941258430481 0.08221300691366196 0.2122122347354889
0.44142764806747437 0.013871332630515099 0.09307850152254105
0.4912318289279938 0.33809560537338257 0.15180781483650208
0.7156847715377808 0.1102156862616539 0.16489794850349426
0.8346554040908813 0.04471799358725548 0.31851717829704285
0.8616695404052734 0.05066489428281784 0.11258202791213989
0.6989971399307251 0.061314307153224945 0.3575757145881653
0.5589869022369385 0.14087224006652832 0.0037501840852200985
0.10332375764846802 0.2495710551738739 0.1662587672472
0.15609018504619598 0.11218084394931793 0.15231050550937653
0.8272782564163208 0.1217631846666336 0.10310220718383789
0.29580846428871155 0.029825642704963684 0.11876962333917618
0.8172402381896973 0.003750245552510023 0.02252819575369358
0.43457093834877014 0.013846294954419136 0.5951972603797913
0.032303858548402786 0.003750020172446966 0.4521079957485199
0.022909728810191154 0.11313452571630478 0.26713722944259644
0.6544643044471741 0.12936557829380035 0.022895390167832375
0.22442933917045593 0.04238630086183548 0.16469784080982208
0.017571615055203438 0.030167564749717712 0.08984611928462982
0.7880719900131226 0.09230605512857437 0.11241026222705841
0.4262062609195709 0.35139164328575134 0.061435408890247345
0.3240559697151184 0.2087378054857254 0.04335670545697212
0.7028353214263916 0.10713712871074677 0.07635965943336487
0.9415334463119507 0.028415298089385033 0.0037500616163015366
0.815750777721405 0.277326762676239 0.014304990880191326
0.6610262393951416 0.07907973229885101 0.041764095425605774
0.2267075479030609 0.011960700154304504 0.3853500187397003
0.42955708503723145 0.5313347578048706 0.5553580522537231
0.2787371873855591 0.003750069532543421 0.21929125487804413
0.12768928706645966 0.05765774846076965 0.182254821062088
0.7169131636619568 0.11147189140319824 0.26546040177345276
0.08211331069469452 0.0037501645274460316 0.1527710258960724
0.33039766550064087 0.1259312927722931 0.17472942173480988
0.2455839216709137 0.09654015302658081 0.02143670991063118
0.003750214818865061 0.11542092263698578 0.26987195014953613
0.8840109705924988 0.029548581689596176 0.019477691501379013
0.15457269549369812 0.12788592278957367 0.06513480842113495
0.5182412266731262 0.0998706966638565 0.003750115167349577
0.2107003629207611 0.038145482540130615 0.003750054631382227
0.8500690460205078 0.049547914415597916 0.08331035077571869
0.7107834219932556 0.03558667004108429 0.04048914462327957
0.13200297951698303 0.03261219710111618 0.24347946047782898
0.13424989581108093 0.11672651767730713 0.08463224768638611
0.7398008108139038 0.003750081406906247 0.040743954479694366
0.9386072158813477 0.021647684276103973 0.045335929840803146
0.3753308355808258 0.011937429197132587 0.19591911137104034
0.9962495565414429 0.046584464609622955 0.17642512917518616
0.23805741965770721 0.07457751035690308 0.05833495408296585
0.38903483748435974 0.15910515189170837 0.13112610578536987
0.4734727740287781 0.08467143028974533 0.20414015650749207
0.3129664361476898 0.15476229786872864 0.10118278115987778
0.12938889861106873 0.03044160269200802 0.08183601498603821
0.14178825914859772 0.013031145557761192 0.10999075323343277
0.289106547832489 0.18876205384731293 0.003750016912817955
0.5842495560646057 0.08188755810260773 0.2016943246126175
0.6920903921127319 0.003750165458768606 0.4305427074432373
0.4896112084388733 0.17203554511070251 0.0037500672042369843
0.5524458885192871 0.0512697696685791 0.10973647981882095
0.21478486061096191 0.014894254505634308 0.20486584305763245
0.5400136709213257 0.04738827422261238 0.01971006765961647
0.8530288934707642 0.057455409318208694 0.25159287452697754
0.25655096769332886 0.045506641268730164 0.22487500309944153
0.7901979684829712 0.017736142501235008 0.1826755255460739
0.49447664618492126 0.3487536311149597 0.007452120538800955
0.7110708355903625 0.03771819919347763 0.07700631022453308
0.8335498571395874 0.14338693022727966 0.04832921549677849
0.6999577283859253 0.014156082645058632 0.15848949551582336
0.1440255343914032 0.27450066804885864 0.013317080214619637
0.8115640878677368 0.03118062950670719 0.020247554406523705
0.42663294076919556 0.34172505140304565 0.13135400414466858
0.551099419593811 0.00375013193115592 0.30076608061790466
0.8310991525650024 0.0283566415309906 0.05707799643278122
0.006902750581502914 0.05090710520744324 0.5475788712501526
0.11513445526361465 0.014077385887503624 0.5428496599197388
0.05307956412434578 0.0810602530837059 0.21039028465747833
0.27968430519104004 0.003750178264454007 0.49539774656295776
0.4271453320980072 0.04196716099977493 0.019825022667646408
0.3730003237724304 0.15823635458946228 0.07854772359132767
0.21571283042430878 0.10235124826431274 0.1602574735879898
0.16161973774433136 0.003750218776986003 0.3498983681201935
0.7010217905044556 0.026065295562148094 0.08164947479963303
0.6201314926147461 0.06319497525691986 0.037525858730077744
0.42241472005844116 0.03691575303673744 0.08011481910943985
0.3706129789352417 0.08650711178779602 0.0037500590551644564
0.9637311100959778 0.0037500523030757904 0.024757705628871918
0.9611101150512695 0.04290347173810005 0.019830260425806046
0.27280375361442566 0.010776679962873459 0.2308630496263504
0.964950680732727 0.0037502411287277937 0.2543574869632721
0.588618278503418 0.11801595985889435 0.21629703044891357
0.33476510643959045 0.10113747417926788 0.10506857931613922
0.16390827298164368 0.01470019668340683 0.03888525441288948
0.972734272480011 0.08799698948860168 0.1877024918794632
0.028836598619818687 0.0037500597536563873 0.02042313851416111
0.20026130974292755 0.034621693193912506 0.024292724207043648
0.039029624313116074 0.013560508377850056 0.056432198733091354
0.14983060956001282 0.143800288438797 0.03345915675163269
0.13316687941551208 0.0598328597843647 0.2972402572631836
0.15641261637210846 0.019561028108000755 0.1368958055973053
0.11242969334125519 0.4498522877693176 0.09918294847011566
0.43136826157569885 0.04421065375208855 0.16397824883460999
0.371918261051178 0.036665502935647964 0.07901797443628311
0.3778555393218994 0.0037502162158489227 0.18486954271793365
0.45132797956466675 0.02611074224114418 0.18416330218315125
0.746164858341217 0.0532415509223938 0.1802566796541214
0.3701748847961426 0.03943749517202377 0.17227709293365479
0.29199713468551636 0.008468800224363804 0.17833806574344635
0.7951400279998779 0.10238416492938995 0.05987374857068062
0.7935692071914673 0.0037500683683902025 0.16997751593589783
0.5152928829193115 0.144833043217659 0.1290351301431656
0.6370006799697876 0.25497162342071533 0.07068143784999847
0.15785862505435944 0.06189338117837906 0.1782509684562683
0.08611556142568588 0.022633327171206474 0.38987186551094055
0.35560959577560425 0.10356496274471283 0.23492863774299622
0.046021007001399994 0.3226848244667053 0.003967316821217537
0.34649643301963806 0.09008552134037018 0.18242566287517548
0.5411662459373474 0.0037500180769711733 0.2506644129753113
0.25963881611824036 0.12428327649831772 0.03754379600286484
0.3183366656303406 0.30028101801872253 0.003945821896195412
0.04982944205403328 0.04135863855481148 0.26115936040878296
0.40091046690940857 0.10895450413227081 0.13170836865901947
0.598491370677948 0.10083427280187607 0.037295885384082794
0.3452540636062622 0.1377706527709961 0.033637307584285736
0.4888632893562317 0.2702607810497284 0.003750025760382414
0.14323770999908447 0.09765134006738663 0.06042156741023064
0.11074931919574738 0.09424125403165817 0.023528361693024635
0.4557473659515381 0.05541984364390373 0.1860920637845993
0.9410932660102844 0.0037502236664295197 0.3338572680950165
0.7717941403388977 0.10394807904958725 0.10227092355489731
0.9962494969367981 0.019924968481063843 0.252452552318573
0.7274332642555237 0.053980834782123566 0.019433518871665
0.4814399182796478 0.0037500932812690735 0.21938467025756836
0.07244627177715302 0.046841345727443695 0.31732895970344543
0.5354173183441162 0.0975562259554863 0.2482801228761673
0.4105737805366516 0.021707836538553238 0.5003863573074341
0.18242038786411285 0.06507869064807892 0.07971666753292084
0.5518999099731445 0.020639795809984207 0.4592340886592865
0.20553655922412872 0.05386527255177498 0.3775551915168762
0.21050889790058136 0.23854036629199982 0.003750203177332878
0.2829909026622772 0.40249139070510864 0.0061600422486662865
