0.35674968361854553 0.10282065719366074 0.12171671539545059
0.02638961747288704 0.10869145393371582 0.015579445287585258
0.765030562877655 0.3084292709827423 0.057249266654253006
0.8781763315200806 0.03593315929174423 0.22195005416870117
0.8336015939712524 0.034506846219301224 0.40813785791397095
0.7870121002197266 0.22129228711128235 0.1725383698940277
0.35291236639022827 0.16402816772460938 0.003750245552510023
0.2927641272544861 0.04025372117757797 0.3070289194583893
0.3315647542476654 0.5177297592163086 0.07750169187784195
0.4650634229183197 0.40450358390808105 0.035481661558151245
0.2380099594593048 0.04741683229804039 0.5175849199295044
0.0391433909535408 0.017308956012129784 0.39682647585868835
0.11093407869338989 0.10213954746723175 0.04268918186426163
0.35439273715019226 0.003750172909349203 0.5978585481643677
0.6518319845199585 0.11372393369674683 0.21418611705303192
0.695956289768219 0.022882087156176567 0.5374571084976196
0.43546542525291443 0.003750081406906247 0.5773389935493469
0.6546093821525574 0.36733758449554443 0.011590097099542618
0.4616212844848633 0.16610266268253326 0.04978257790207863
0.54520183801651 0.06112133711576462 0.3282678723335266
0.7391618490219116 0.10218159854412079 0.20208601653575897
0.8433562517166138 0.04690559580922127 0.2714883089065552
0.24841931462287903 0.10577069222927094 0.08680941164493561
0.8548388481140137 0.02000531740486622 0.2669313848018646
0.3061237037181854 0.3472258448600769 0.14211824536323547
0.5748552083969116 0.08093539625406265 0.0037501403130590916
0.8547495603561401 0.05864353105425835 0.27470794320106506
0.044628486037254333 0.45282310247421265 0.005166859365999699
0.0037501337938010693 0.06274016201496124 0.3666013181209564
0.24790558218955994 0.05808878690004349 0.4027870297431946
0.2631687819957733 0.1319938600063324 0.1931830197572708
0.3787572979927063 0.11374391615390778 0.26922065019607544
0.4460512697696686 0.01766810193657875 0.5794700384140015
0.037575237452983856 0.19653289020061493 0.0038116276264190674
0.2765997052192688 0.0037500481121242046 0.3602040410041809
0.541797935962677 0.0037500374019145966 0.3392641246318817
0.33349862694740295 0.029177680611610413 0.10693331807851791
0.4415908455848694 0.08249583095312119 0.25874122977256775
0.26033419370651245 0.04840337485074997 0.08150750398635864
0.7632378935813904 0.25966721773147583 0.004187758546322584
0.652297854423523 0.018802274018526077 0.25327879190444946
0.5011771321296692 0.2725544273853302 0.0037501577753573656
0.8061272501945496 0.18471023440361023 0.003750098403543234
0.6611447334289551 0.1662813276052475 0.09585627913475037
0.8632351160049438 0.021098468452692032 0.5669463872909546
0.7507608532905579 0.3284425139427185 0.0057193804532289505
0.7308835387229919 0.20101884007453918 0.0037500474136322737
0.3854251205921173 0.07667654752731323 0.06230442598462105
0.024475090205669403 0.060073524713516235 0.4582310616970062
0.2148178368806839 0.0037500925827771425 0.47220221161842346
0.1886133849620819 0.017007125541567802 0.1607169657945633
0.059538304805755615 0.10462892055511475 0.24813321232795715
0.151617631316185 0.06313227117061615 0.2543877065181732
0.5566594004631042 0.11353646218776703 0.036041632294654846
0.038699451833963394 0.03513382747769356 0.3564605116844177
0.5476636290550232 0.020035073161125183 0.3475174307823181
0.180969700217247 0.29918843507766724 0.22469381988048553
0.6062999963760376 0.02172957919538021 0.33188578486442566
0.5753166675567627 0.0037501086480915546 0.5108768939971924
0.5189242362976074 0.07466347515583038 0.31964296102523804
0.6187520027160645 0.02583298645913601 0.5451722145080566
0.49426937103271484 0.3469897508621216 0.08574797213077545
0.3379305899143219 0.15624180436134338 0.1606665402650833
0.7383139133453369 0.06115109473466873 0.13649700582027435
0.4539407193660736 0.40637701749801636 0.12199582159519196
0.551651656627655 0.04795696586370468 0.4132881760597229
0.6412464380264282 0.015647921711206436 0.10962824523448944
0.3377447724342346 0.19841934740543365 0.003750057425349951
0.3036247491836548 0.037916358560323715 0.33112484216690063
0.13005760312080383 0.08354358375072479 0.3482967019081116
0.36559930443763733 0.062407296150922775 0.4190652370452881
0.14204785227775574 0.011606560088694096 0.06712813675403595
0.7284506559371948 0.1138378158211708 0.18985578417778015
0.08250974118709564 0.042717769742012024 0.33420616388320923
0.6513580083847046 0.06988880783319473 0.27626270055770874
0.45921435952186584 0.1986588090658188 0.09143882244825363
0.18658336997032166 0.3403918445110321 0.0051656318828463554
0.22757430374622345 0.06065966933965683 0.1662554293870926
0.41696053743362427 0.03798431530594826 0.5375520586967468
0.7138716578483582 0.13205000758171082 0.13120639324188232
0.4836372435092926 0.04769635200500488 0.19596566259860992
0.6952159404754639 0.11329714953899384 0.20290808379650116
0.49729079008102417 0.140442356467247 0.19361183047294617
0.6821409463882446 0.2567060589790344 0.10911973565816879
0.5335723161697388 0.2028953582048416 0.0037501086480915546
0.796831488609314 0.0037500124890357256 0.5225450396537781
0.7525829076766968 0.11022283136844635 0.08366541564464569
0.9323501586914062 0.1379503756761551 0.06939543038606644
0.9618064761161804 0.04714130610227585 0.10208133608102798
0.020263690501451492 0.0037501738406717777 0.13902726769447327
0.11525475978851318 0.025898730382323265 0.2039543092250824
0.7198453545570374 0.033507056534290314 0.182521253824234
0.428713858127594 0.0037502131890505552 0.5978585481643677
0.2392241507768631 0.39804860949516296 0.003840828314423561
0.004207414574921131 0.24765124917030334 0.048487480729818344
0.4057445526123047 0.12523236870765686 0.245658278465271
0.4971843659877777 0.0615365095436573 0.1322842240333557
0.08547366410493851 0.08823653310537338 0.20780213177204132
0.28446832299232483 0.030506601557135582 0.2764904499053955
0.5257303714752197 0.017523083835840225 0.210173562169075
0.6565045714378357 0.13178248703479767 0.11291897296905518
0.7375165224075317 0.0037501149345189333 0.5229487419128418
0.5931655168533325 0.013861310668289661 0.07700233161449432
0.9816957712173462 0.04332772642374039 0.05537750571966171
0.5638521909713745 0.035876624286174774 0.28326207399368286
0.34338074922561646 0.09995083510875702 0.05756787210702896
0.8517052531242371 0.01686287298798561 0.14501461386680603
0.03987948223948479 0.08352057635784149 0.0999051183462143
0.6277589201927185 0.07907553017139435 0.2883950173854828
0.903843104839325 0.11481108516454697 0.1547352522611618
0.13351888954639435 0.09333685040473938 0.12976351380348206
0.3939499855041504 0.12222260236740112 0.09421838074922562
0.003750114468857646 0.013301203958690166 0.18884435296058655
0.8374583125114441 0.003750015050172806 0.1786382496356964
0.2508736848831177 0.23733535408973694 0.003750103758648038
0.6931487321853638 0.003755229292437434 0.5978584885597229
0.3270428478717804 0.03737439215183258 0.003750002710148692
0.21673834323883057 0.17025937139987946 0.07517127692699432
0.0037500429898500443 0.01612652838230133 0.5074763298034668
0.13083596527576447 0.0037501477636396885 0.16764995455741882
0.0727439895272255 0.12780572474002838 0.08311199396848679
0.6910045742988586 0.003750033210963011 0.4300042986869812
0.24786785244941711 0.05961564928293228 0.018022757023572922
0.9088320732116699 0.02146352455019951 0.26491373777389526
0.7203031182289124 0.0037501747719943523 0.10986026376485825
0.2827848494052887 0.038567256182432175 0.017490584403276443
0.294222891330719 0.07635822892189026 0.15366020798683167
0.24765589833259583 0.013548040762543678 0.0037501384504139423
0.9125843048095703 0.02172737568616867 0.46619337797164917
0.7733043432235718 0.09691816568374634 0.003750128671526909
0.857037365436554 0.08853207528591156 0.18830667436122894
0.2879897952079773 0.16744641959667206 0.10862342268228531
0.28776034712791443 0.003750117029994726 0.43778592348098755
0.06842782348394394 0.030864292755723 0.2303759753704071
0.019387496635317802 0.5602306127548218 0.015655141323804855
0.003750110510736704 0.023832466453313828 0.027003783732652664
0.055457957088947296 0.01265154778957367 0.054416608065366745
0.1818237602710724 0.02995789423584938 0.2654458284378052
0.22520940005779266 0.02808254025876522 0.13353776931762695
0.1505226194858551 0.07947895675897598 0.06706773489713669
0.2390524446964264 0.015052045695483685 0.1834433674812317
0.5079552531242371 0.32920703291893005 0.003803639905527234
0.3697904944419861 0.0037501766346395016 0.21314994990825653
0.294948011636734 0.0037501933984458447 0.20390141010284424
0.6857622861862183 0.022621890529990196 0.3180970549583435
0.4626232087612152 0.16951774060726166 0.11589846760034561
0.41163817048072815 0.09689073264598846 0.09992340207099915
0.41443976759910583 0.32424160838127136 0.08013083785772324
0.9834129214286804 0.0037502467166632414 0.2070590704679489
0.9128841161727905 0.02228252962231636 0.3226744532585144
0.8074043393135071 0.03291720151901245 0.11505883932113647
0.9824997186660767 0.05677419900894165 0.11435957998037338
0.20522937178611755 0.4752531945705414 0.023335754871368408
0.8665181398391724 0.0037501498591154814 0.11050780862569809
0.5065054297447205 0.35522425174713135 0.06049371883273125
0.12173260748386383 0.003750152885913849 0.2991918623447418
0.1620471179485321 0.015989501029253006 0.37408447265625
0.23371481895446777 0.014579874463379383 0.3499440550804138
0.2151452600955963 0.051999010145664215 0.08880709856748581
0.6414287090301514 0.0037502001505345106 0.43663254380226135
0.2867378294467926 0.3819199204444885 0.05421905592083931
0.6746582388877869 0.040194928646087646 0.31980738043785095
0.6263872981071472 0.03271486237645149 0.5175942182540894
0.641419529914856 0.0037500099278986454 0.12875550985336304
0.18256153166294098 0.37447473406791687 0.03196294605731964
0.3296791911125183 0.1693999469280243 0.022830462083220482
0.037134233862161636 0.04628824442625046 0.46374186873435974
0.449052095413208 0.11115362495183945 0.06581540405750275
0.9187346696853638 0.018235517665743828 0.1219119057059288
0.9962494969367981 0.16547559201717377 0.07937707006931305
0.9487927556037903 0.048788297921419144 0.15349140763282776
0.9326744079589844 0.04953158646821976 0.16334104537963867
0.9962495565414429 0.04737786576151848 0.020180225372314453
0.12261803448200226 0.030772825703024864 0.5174506902694702
0.3457849621772766 0.020607657730579376 0.5978584885597229
0.1242503747344017 0.032714881002902985 0.46317949891090393
0.9962495565414429 0.0037502371706068516 0.09881921112537384
0.40168896317481995 0.03777727857232094 0.43884891271591187
0.11567968130111694 0.06763092428445816 0.2727862000465393
0.13887962698936462 0.10609589517116547 0.20752160251140594
0.5011450052261353 0.08177107572555542 0.10200148820877075
0.1249968558549881 0.5063906908035278 0.023037204518914223
0.4719991087913513 0.18413390219211578 0.003750086994841695
0.26596543192863464 0.2444351613521576 0.13968348503112793
0.8660910725593567 0.04701215401291847 0.12481876462697983
0.8313142657279968 0.11663059890270233 0.15467290580272675
0.8723950386047363 0.06194113940000534 0.1330668330192566
0.8359125256538391 0.027710556983947754 0.017625343054533005
0.4980461597442627 0.24006779491901398 0.06005052849650383
0.8329215049743652 0.03578915074467659 0.16296808421611786
0.6457070112228394 0.01633262448012829 0.17293496429920197
0.9451953172683716 0.06869392842054367 0.12174191325902939
0.3869475722312927 0.0037500367034226656 0.21117238700389862
0.7111588716506958 0.00375009560957551 0.12643757462501526
0.6091834306716919 0.06105535104870796 0.20981302857398987
0.2213257998228073 0.0037501428741961718 0.3391689956188202
0.31530576944351196 0.1302826851606369 0.208871990442276
0.12961962819099426 0.08859218657016754 0.2121293544769287
0.2912006378173828 0.028641793876886368 0.29553648829460144
0.08344177901744843 0.10747922956943512 0.2286072075366974
0.8557115793228149 0.10829003155231476 0.0037500702310353518
0.018400922417640686 0.03768083453178406 0.17270109057426453
0.021671805530786514 0.04851987212896347 0.2609277367591858
0.4051694869995117 0.027975138276815414 0.05656638741493225
0.5990169048309326 0.0037501633632928133 0.20012950897216797
0.6121582984924316 0.026228878647089005 0.4752159118652344
0.6576980948448181 0.1764361411333084 0.06875336170196533
0.34769541025161743 0.3389664888381958 0.2123316079378128
0.5446580648422241 0.30513566732406616 0.056377582252025604
0.7278121113777161 0.05001164600253105 0.17725728452205658
0.6555274724960327 0.02643294259905815 0.10356386750936508
0.9484063982963562 0.017174525186419487 0.15618079900741577
0.37742552161216736 0.13610349595546722 0.11682139337062836
0.8080887794494629 0.05040280893445015 0.10728633403778076
0.9828572273254395 0.01766025647521019 0.1766228973865509
0.5752061009407043 0.03860310837626457 0.4756712019443512
0.2603369355201721 0.06810317933559418 0.35650724172592163
0.20497624576091766 0.030855298042297363 0.3442530632019043
0.4097828269004822 0.0037500623147934675 0.2698032259941101
0.003750129137188196 0.07543241232633591 0.5112248063087463
0.769199013710022 0.03138258308172226 0.1579374521970749
0.040913380682468414 0.2601364850997925 0.04595565050840378
0.8483964800834656 0.13593588769435883 0.0037502143532037735
0.05697961524128914 0.031278565526008606 0.17132319509983063
0.19632238149642944 0.033697012811899185 0.16710242629051208
0.769714891910553 0.0037501833867281675 0.3546878695487976
0.5404171943664551 0.24556012451648712 0.06185689568519592
0.5769195556640625 0.048855628818273544 0.21227264404296875
0.4183228611946106 0.2878802418708801 0.003750231582671404
0.6647592782974243 0.15517070889472961 0.06230038404464722
0.5495452880859375 0.03561539202928543 0.24998073279857635
0.7488545179367065 0.03320299834012985 0.16359356045722961
0.7228019833564758 0.2287246286869049 0.003750097006559372
0.6779857277870178 0.06084635853767395 0.19180986285209656
0.2709282636642456 0.07120036333799362 0.05497016757726669
0.950933575630188 0.0272651556879282 0.3592629134654999
0.06745842844247818 0.24754464626312256 0.004359494894742966
0.34933850169181824 0.043779049068689346 0.35624366998672485
0.10589151084423065 0.039713334292173386 0.15690019726753235
0.3987097144126892 0.015236316248774529 0.28916385769844055
0.325504332780838 0.0280186478048563 0.3630087077617645
0.3822697401046753 0.05135861039161682 0.4736594259738922
0.5138753056526184 0.2909858524799347 0.16749098896980286
0.05025147646665573 0.10210075229406357 0.21900710463523865
0.42551469802856445 0.014638805761933327 0.2537606358528137
0.749897837638855 0.20846307277679443 0.0524585135281086
0.43805772066116333 0.05404776334762573 0.44356846809387207
0.29489779472351074 0.26665952801704407 0.0561148002743721
0.529928982257843 0.0037500441540032625 0.280397891998291
0.39199957251548767 0.12147217988967896 0.2343103140592575
0.8759492039680481 0.003750090254470706 0.1404673159122467
0.6254205107688904 0.10129547119140625 0.21755166351795197
0.8688329458236694 0.04192611202597618 0.31930795311927795
0.8939916491508484 0.08604034781455994 0.021190248429775238
0.8400821685791016 0.24933087825775146 0.11396604776382446
0.4703385829925537 0.13818489015102386 0.06727226823568344
0.17062915861606598 0.0795353427529335 0.3887759745121002
0.41530752182006836 0.13942410051822662 0.01994008757174015
0.2230718433856964 0.016784925013780594 0.505858302116394
0.4817574918270111 0.3608551621437073 0.09199632704257965
0.052592478692531586 0.04071531444787979 0.0037501156330108643
0.022231366485357285 0.036791738122701645 0.5443156361579895
0.07189962267875671 0.003750175703316927 0.46240630745887756
0.6693639159202576 0.0037500313483178616 0.19694741070270538
0.5465794801712036 0.01746111921966076 0.3097233474254608
0.6372168064117432 0.003750141244381666 0.30110687017440796
0.18546989560127258 0.01836853101849556 0.17674770951271057
0.4590145945549011 0.18508091568946838 0.16817180812358856
0.39818501472473145 0.1376272588968277 0.03898974880576134
0.6681675910949707 0.05194370076060295 0.1655709445476532
0.3739757239818573 0.04302462935447693 0.09583568572998047
0.6028398871421814 0.04941229522228241 0.18971887230873108
0.7400268316268921 0.021726088598370552 0.5726476907730103
0.9854269027709961 0.2575414180755615 0.047586385160684586
0.29704397916793823 0.003750184550881386 0.14147455990314484
0.5155187249183655 0.09048886597156525 0.3029863238334656
0.8819332122802734 0.01700647547841072 0.19861751794815063
0.9494488835334778 0.04433688893914223 0.0037501051556319
0.8869428634643555 0.09279639273881912 0.14574334025382996
0.22614510357379913 0.15982940793037415 0.08520575612783432
0.21614763140678406 0.04766255244612694 0.22423484921455383
0.017707059159874916 0.08418305218219757 0.0037501163315027952
0.42612162232398987 0.17195472121238708 0.14012660086154938
0.1365734189748764 0.1150229349732399 0.0037502460181713104
0.1506747454404831 0.0875958800315857 0.15280959010124207
0.6207053661346436 0.03081813082098961 0.15060365200042725
0.8604412078857422 0.0037502467166632414 0.1628400981426239
0.4716212749481201 0.27165940403938293 0.04065876454114914
0.7006398439407349 0.003750087693333626 0.4007564187049866
0.04320312663912773 0.01998003199696541 0.5642512440681458
0.5789371728897095 0.019432172179222107 0.2650893032550812
0.4591667056083679 0.3988194763660431 0.006133633200079203
0.7205268144607544 0.023722145706415176 0.47454890608787537
0.7865782976150513 0.0037500362377613783 0.191375270485878
0.8989865183830261 0.0037501887418329716 0.25959381461143494
0.5751096606254578 0.1477150022983551 0.11639968305826187
0.6118411421775818 0.018224086612462997 0.01994304731488228
0.8681272268295288 0.10769357532262802 0.04914332926273346
0.9037812352180481 0.00375020457431674 0.41919103264808655
0.8278794288635254 0.0641065239906311 0.14765894412994385
0.4730684161186218 0.2947480082511902 0.02702629566192627
0.4214952886104584 0.04406311362981796 0.4440140128135681
0.24272993206977844 0.003750114468857646 0.039331093430519104
0.36462894082069397 0.0037501913029700518 0.13296940922737122
0.28406673669815063 0.5388264656066895 0.009251248091459274
0.5377098321914673 0.04910534992814064 0.09057449549436569
0.09030387550592422 0.030008971691131592 0.3934323489665985
0.17228303849697113 0.02948627807199955 0.5136269330978394
0.6274979114532471 0.13446421921253204 0.10037805140018463
0.5573298931121826 0.09211522340774536 0.0836724191904068
0.37938112020492554 0.19671759009361267 0.041071292012929916
0.7370339632034302 0.0037500127218663692 0.42781883478164673
0.5578555464744568 0.15267525613307953 0.11143915355205536
0.6715456247329712 0.07116883993148804 0.21169212460517883
0.4231639504432678 0.1081753820180893 0.13988584280014038
0.7217336297035217 0.14758643507957458 0.021978024393320084
0.6092214584350586 0.05320598557591438 0.33107489347457886
0.5164896249771118 0.2890728712081909 0.02439006231725216
0.8708273768424988 0.021427955478429794 0.3193098306655884
0.9620444178581238 0.00375013193115592 0.42605718970298767
0.45182085037231445 0.03669588640332222 0.10387344658374786
0.41092649102211 0.01646413281559944 0.3107474148273468
0.27281442284584045 0.08770430833101273 0.27250611782073975
0.3620555102825165 0.05804098770022392 0.4383094906806946
0.18186728656291962 0.028088903054594994 0.026143381372094154
0.4626825749874115 0.03105764463543892 0.5306704044342041
0.15178054571151733 0.10949796438217163 0.037341516464948654
0.4055503308773041 0.0037500702310353518 0.1382051408290863
0.01589023321866989 0.09300075471401215 0.019529342651367188
0.38233986496925354 0.38911211490631104 0.06022077798843384
0.7259700894355774 0.0037501051556319 0.36043715476989746
0.3181707262992859 0.2557649612426758 0.013629424385726452
0.45609337091445923 0.1502642184495926 0.18069443106651306
0.7205357551574707 0.003750200616195798 0.5269042253494263
0.4933594763278961 0.1636228859424591 0.021417226642370224
0.6330558657646179 0.2641155421733856 0.1698293387889862
0.3784137964248657 0.08255122601985931 0.30656975507736206
0.9033459424972534 0.031230485066771507 0.020608196035027504
0.8027855157852173 0.0175756998360157 0.21695125102996826
0.6059789061546326 0.22324156761169434 0.07187508791685104
0.9564046859741211 0.024038242176175117 0.42340317368507385
0.8734960556030273 0.256232887506485 0.12339707463979721
0.293067991733551 0.02896496094763279 0.26030343770980835
0.12362991273403168 0.0971008837223053 0.32886576652526855
0.011189479380846024 0.12224583327770233 0.0773090124130249
0.2651370167732239 0.05161181092262268 0.3873967230319977
0.6526739001274109 0.02197926491498947 0.37114301323890686
0.06760159134864807 0.03740296512842178 0.0732060894370079
0.0037501088809221983 0.08650103211402893 0.5008410215377808
0.3440280556678772 0.0037500846665352583 0.5361593961715698
0.4309493899345398 0.020763695240020752 0.23276396095752716
0.24176578223705292 0.0037501745391637087 0.4633578360080719
0.5153629183769226 0.028094694018363953 0.1876586377620697
0.4898892343044281 0.08286283910274506 0.3449702858924866
0.49918755888938904 0.12581263482570648 0.203960582613945
0.7709115743637085 0.021940678358078003 0.01913764700293541
0.78373783826828 0.09963365644216537 0.08532118052244186
0.6013917326927185 0.3269672989845276 0.0037501391489058733
0.7936328053474426 0.26701846718788147 0.056145451962947845
0.8142514228820801 0.03466646000742912 0.23018081486225128
0.9758120775222778 0.061688877642154694 0.28640016913414
0.3670075535774231 0.49286818504333496 0.02125445008277893
0.9962495565414429 0.1041073426604271 0.0776074081659317
0.25300416350364685 0.14801673591136932 0.0037502131890505552
0.5030909776687622 0.11741138994693756 0.2645508646965027
0.5145718455314636 0.0037500355392694473 0.34840959310531616
0.18107618391513824 0.0075035542249679565 0.5169900059700012
0.08646377921104431 0.01890856958925724 0.5685586929321289
0.21440300345420837 0.5135577917098999 0.027656931430101395
0.48493003845214844 0.11241010576486588 0.10034291446208954
0.20405617356300354 0.18339887261390686 0.0301222987473011
0.1433817446231842 0.04564814269542694 0.35631293058395386
0.4301179349422455 0.010032023303210735 0.07391825318336487
0.5434223413467407 0.003750008763745427 0.5978583693504333
0.08952993899583817 0.06034768372774124 0.41966184973716736
0.33064281940460205 0.2420467883348465 0.24314990639686584
0.7327197194099426 0.1628415584564209 0.08446729928255081
0.5999197363853455 0.003750026924535632 0.438312292098999
0.8762506246566772 0.11040860414505005 0.1433650553226471
0.707690417766571 0.09258565306663513 0.2387634813785553
0.5981844663619995 0.01635022833943367 0.18797162175178528
0.441699355840683 0.016017507761716843 0.1417139321565628
0.2953186333179474 0.11102654784917831 0.07475151121616364
0.39588361978530884 0.3593936562538147 0.003954379819333553
0.3795873820781708 0.017904996871948242 0.2932279706001282
0.31484559178352356 0.034502528607845306 0.39542725682258606
0.15354754030704498 0.04242539033293724 0.09827770292758942
0.020389216020703316 0.12844078242778778 0.3796516954898834
0.713544487953186 0.042394887655973434 0.35524389147758484
0.5775889754295349 0.0037501149345189333 0.2899267077445984
0.9794151186943054 0.1556309312582016 0.019255544990301132
0.3934321105480194 0.3807845413684845 0.15122655034065247
0.31246617436408997 0.05132457613945007 0.44943326711654663
0.11102128028869629 0.07662283629179001 0.3035745322704315
0.003750159638002515 0.003750008763745427 0.0037501591723412275
0.7084866762161255 0.02271595224738121 0.56011563539505
0.3611587584018707 0.03047642484307289 0.19380123913288116
0.8182617425918579 0.08917656540870667 0.17074105143547058
0.04068438336253166 0.04715936258435249 0.4403463304042816
0.48077353835105896 0.17307047545909882 0.04455878585577011
0.8321235775947571 0.1330033242702484 0.0037500266917049885
0.18579792976379395 0.09648070484399796 0.32785600423812866
0.9479936361312866 0.11417938768863678 0.14444921910762787
0.6295000314712524 0.11731584370136261 0.18384382128715515
0.6283912062644958 0.10773073136806488 0.26547104120254517
0.0157315693795681 0.11942495405673981 0.021333865821361542
0.47351130843162537 0.019868506118655205 0.5170162916183472
0.6680106520652771 0.01999356970191002 0.3230971097946167
0.21221554279327393 0.0037500406615436077 0.15047307312488556
0.5996121168136597 0.0037502297200262547 0.10322411358356476
0.18449851870536804 0.06396530568599701 0.46214762330055237
0.5152615308761597 0.13385336101055145 0.12476378679275513
0.44034329056739807 0.1387861669063568 0.05361489579081535
0.5018399357795715 0.026024991646409035 0.5723917484283447
0.5368045568466187 0.003750141244381666 0.4489186704158783
0.5449148416519165 0.08623684197664261 0.1210724338889122
0.6019076108932495 0.2904072105884552 0.03681137412786484
0.7923506498336792 0.05964397266507149 0.3023797273635864
0.7648798227310181 0.02327631786465645 0.490669310092926
0.6736875772476196 0.07187652587890625 0.27751031517982483
0.9000426530838013 0.003750235540792346 0.47886332869529724
0.892918586730957 0.003750074189156294 0.5582178831100464
0.8025838732719421 0.14366504549980164 0.029162708669900894
0.6425724625587463 0.12838920950889587 0.18569402396678925
0.5577105283737183 0.029376095160841942 0.17541196942329407
0.5388936400413513 0.24258656799793243 0.193388894200325
0.13567306101322174 0.08499213308095932 0.0037500883918255568
0.30266934633255005 0.012879493646323681 0.016837896779179573
0.09302787482738495 0.025115927681326866 0.5254050493240356
0.11681187152862549 0.0037500939797610044 0.08204726129770279
0.4029950499534607 0.0037500890903174877 0.5682564973831177
0.5850691795349121 0.0364883653819561 0.4285739064216614
0.4736941456794739 0.023006822913885117 0.4407544732093811
0.34318217635154724 0.04385345056653023 0.04786507785320282
0.8774732351303101 0.0037500523030757904 0.5571213960647583
0.46853843331336975 0.08000686019659042 0.23556116223335266
0.5738169550895691 0.018216364085674286 0.5312941670417786
0.6047630906105042 0.07716653496026993 0.26390498876571655
0.20223522186279297 0.07025262713432312 0.3453417420387268
0.44965559244155884 0.3275322914123535 0.06836152821779251
0.873914361000061 0.022330064326524734 0.4338773190975189
0.4733186662197113 0.15161897242069244 0.1969933956861496
0.5573016405105591 0.14398857951164246 0.2069357931613922
0.5200209021568298 0.43285852670669556 0.009360676631331444
0.5310690402984619 0.10215692222118378 0.058021627366542816
0.5008496046066284 0.0345439538359642 0.3804290294647217
0.46387434005737305 0.08378948271274567 0.09829671680927277
0.36334532499313354 0.015205979347229004 0.30144765973091125
0.34477928280830383 0.3474462032318115 0.05802815034985542
0.5015546083450317 0.021806182339787483 0.48748016357421875
0.348513662815094 0.03205741196870804 0.17572079598903656
0.6586323380470276 0.023240065202116966 0.5634550452232361
0.3012271821498871 0.05568518117070198 0.2292461097240448
0.5248160362243652 0.0037500422913581133 0.5162592530250549
0.3663817048072815 0.05825138837099075 0.35362300276756287
0.531866729259491 0.003750107018277049 0.5627212524414062
0.5209938287734985 0.021911533549427986 0.5890694856643677
0.21011999249458313 0.08307478576898575 0.3812781274318695
0.7938777208328247 0.08419402688741684 0.1963830143213272
0.6220077276229858 0.0037501484621316195 0.4365648329257965
0.6088409423828125 0.0037501126062124968 0.5547891855239868
0.8970471620559692 0.054466117173433304 0.28148317337036133
0.7769752740859985 0.04612172394990921 0.10742713510990143
0.03627018257975578 0.01885482855141163 0.11496039479970932
0.5072845220565796 0.24533739686012268 0.027294393628835678
0.6269638538360596 0.2307758629322052 0.034816332161426544
0.3252662718296051 0.2346796691417694 0.2503231167793274
0.7663392424583435 0.19600379467010498 0.12245011329650879
0.6438202857971191 0.003750196425244212 0.39279913902282715
0.12502889335155487 0.13374760746955872 0.023214247077703476
0.05993114784359932 0.07574410736560822 0.3328161835670471
0.27129247784614563 0.05260983854532242 0.2755628228187561
0.1608135998249054 0.04753478616476059 0.3530017137527466
0.22991299629211426 0.13433301448822021 0.2181582748889923
0.32328763604164124 0.0612545907497406 0.19543614983558655
0.5087741613388062 0.020596396178007126 0.5047208070755005
0.16284827888011932 0.4387950301170349 0.005013303365558386
0.5588372349739075 0.10045264661312103 0.29744580388069153
0.3052411675453186 0.40738996863365173 0.0047919065691530704
0.49288851022720337 0.093699611723423 0.3376377522945404
0.9785493612289429 0.2329317331314087 0.0037501410115510225
0.8470237851142883 0.04010224714875221 0.21241708099842072
0.05981971696019173 0.09063498675823212 0.2881864905357361
0.5038167238235474 0.013332153670489788 0.11869741976261139
0.80804842710495 0.22653496265411377 0.017895672470331192
0.5963100790977478 0.33365148305892944 0.06427367031574249
0.9331159591674805 0.06884267926216125 0.2701004445552826
0.4613179564476013 0.10607762634754181 0.25471240282058716
0.5207282900810242 0.33027106523513794 0.10563434660434723
0.04042080417275429 0.003750064643099904 0.5978584289550781
0.38775309920310974 0.02999304234981537 0.003750079544261098
0.6761353015899658 0.1193748265504837 0.16052481532096863
0.31049644947052 0.0037500853650271893 0.34998199343681335
0.932215690612793 0.03202749043703079 0.12525252997875214
0.30739596486091614 0.04469949007034302 0.19736473262310028
0.16183330118656158 0.03407767415046692 0.47043052315711975
0.5645657181739807 0.03426118940114975 0.2619664967060089
0.8037958145141602 0.14569298923015594 0.06186138466000557
0.4076986312866211 0.24953773617744446 0.06853611767292023
0.6858614683151245 0.07741961628198624 0.24578335881233215
0.22766923904418945 0.19939036667346954 0.21761497855186462
0.3290417790412903 0.47609901428222656 0.030130818486213684
0.533679723739624 0.12152562290430069 0.24732637405395508
0.6356498003005981 0.14179246127605438 0.14060959219932556
0.7751427888870239 0.08801968395709991 0.2392110824584961
0.061942946165800095 0.04984230548143387 0.2918221652507782
0.5110070705413818 0.014187900349497795 0.07657289505004883
0.956927478313446 0.04337287321686745 0.08190060406923294
0.900375247001648 0.04106003791093826 0.33488816022872925
0.6088756918907166 0.01678105816245079 0.003750078845769167
0.4563363492488861 0.03146938234567642 0.5846455693244934
0.16078898310661316 0.08109131455421448 0.042232610285282135
0.42920297384262085 0.15035183727741241 0.08392449468374252
0.09060998260974884 0.04499746114015579 0.11167268455028534
0.04246307536959648 0.09697626531124115 0.24681417644023895
0.22756028175354004 0.003750177100300789 0.28731775283813477
0.39551424980163574 0.0184912271797657 0.4538215100765228
0.4364127218723297 0.1100723147392273 0.2443004548549652
0.5973671674728394 0.003750136587768793 0.08625240623950958
0.3176787495613098 0.06181415170431137 0.16197550296783447
0.2024017870426178 0.10348383337259293 0.17935281991958618
0.6821401715278625 0.03854163736104965 0.40002498030662537
0.0489552803337574 0.02996029332280159 0.5021502375602722
0.8833798170089722 0.016615653410553932 0.00375002552755177
0.760316014289856 0.039912693202495575 0.3691876232624054
0.7633851766586304 0.026674488559365273 0.3048984706401825
0.46681681275367737 0.3280549645423889 0.023928066715598106
0.7140666246414185 0.26873722672462463 0.038105472922325134
0.9564318656921387 0.003750099567696452 0.4073166251182556
0.7183926701545715 0.28203704953193665 0.026900887489318848
0.873116135597229 0.09675191342830658 0.16029247641563416
0.36439746618270874 0.030320415273308754 0.31188929080963135
0.8443487882614136 0.16308632493019104 0.06965674459934235
0.20449841022491455 0.012441538274288177 0.49600476026535034
0.5261075496673584 0.011223622597754002 0.017960693687200546
0.07744257152080536 0.027526015415787697 0.44721564650535583
0.3701741397380829 0.08196470141410828 0.07761421799659729
0.08927050977945328 0.18694166839122772 0.004539980553090572
0.32462626695632935 0.09581887722015381 0.20992061495780945
0.5430973172187805 0.07784678041934967 0.33922797441482544
0.012636013329029083 0.16313536465168 0.18239521980285645
0.021846318617463112 0.07320372760295868 0.21300721168518066
0.17269708216190338 0.0037500783801078796 0.20195190608501434
0.464468777179718 0.062852643430233 0.09461329877376556
0.551069974899292 0.10122910887002945 0.11561678349971771
0.5379225015640259 0.26117411255836487 0.0687255710363388
0.9570034146308899 0.0037500946782529354 0.06310851871967316
0.48264002799987793 0.2666139602661133 0.0037501200567930937
0.45923179388046265 0.3072488009929657 0.05806262418627739
0.900067925453186 0.0037500783801078796 0.43551105260849
0.9330350756645203 0.02439100481569767 0.33867889642715454
0.10496671497821808 0.12409968674182892 0.13356973230838776
0.5294194221496582 0.14607535302639008 0.0892731174826622
0.4082074761390686 0.20634344220161438 0.07063375413417816
0.6738058924674988 0.0037501163315027952 0.5071578025817871
0.25940316915512085 0.13203182816505432 0.003750227391719818
0.5742254257202148 0.06484558433294296 0.28237468004226685
0.6386443376541138 0.03248230367898941 0.4806842803955078
0.09952864795923233 0.0558309368789196 0.45965176820755005
0.7989962100982666 0.0037500858306884766 0.40032845735549927
0.11431441456079483 0.003750139381736517 0.42691564559936523
0.3308996558189392 0.09156499803066254 0.33343473076820374
0.6301141977310181 0.02425423637032509 0.5717460513114929
0.012064335867762566 0.31459617614746094 0.013480432331562042
0.7056708931922913 0.07647211849689484 0.24785542488098145
0.7506400346755981 0.07787587493658066 0.21146218478679657
0.8932440876960754 0.23541100323200226 0.09059271961450577
0.20832975208759308 0.013812306337058544 0.2843676507472992
0.44263142347335815 0.003750048577785492 0.06891737878322601
0.44729456305503845 0.05438379570841789 0.10003411769866943
0.8434772491455078 0.06375634670257568 0.17494013905525208
0.9593586921691895 0.05768110603094101 0.23227258026599884
0.5568996667861938 0.0037500939797610044 0.22726169228553772
0.14944328367710114 0.031209364533424377 0.4878908097743988
0.13247603178024292 0.032993383705616 0.4825897216796875
0.2907728850841522 0.0523720383644104 0.2821536660194397
0.25613588094711304 0.08927900344133377 0.25951534509658813
0.2950892746448517 0.4395515024662018 0.04556044191122055
0.003750136587768793 0.15843826532363892 0.05120214819908142
0.23751163482666016 0.02933286689221859 0.3739811182022095
0.27438846230506897 0.1617608368396759 0.14335867762565613
0.5814957022666931 0.13253751397132874 0.15302011370658875
0.07163781672716141 0.031832218170166016 0.38588860630989075
0.6559736132621765 0.022603878751397133 0.41954708099365234
0.6727862358093262 0.003750123782083392 0.14757999777793884
0.5884782075881958 0.02806551195681095 0.29397326707839966
0.7072271108627319 0.034396637231111526 0.24619118869304657
0.6507254838943481 0.2167578637599945 0.0037500099278986454
0.7409414052963257 0.1487731635570526 0.08393818885087967
0.49900978803634644 0.10292588174343109 0.021317582577466965
0.7765603065490723 0.13591955602169037 0.0037502069026231766
0.34256401658058167 0.0037501987535506487 0.08217529207468033
0.05001164600253105 0.019536927342414856 0.3092615604400635
0.11831585317850113 0.017648257315158844 0.4181603491306305
0.1898859441280365 0.10304605960845947 0.15938054025173187
0.03345388174057007 0.049389488995075226 0.2746869921684265
0.23023705184459686 0.028078589588403702 0.33700570464134216
0.08588290959596634 0.05748538300395012 0.323533296585083
0.1003321185708046 0.0557672455906868 0.27216416597366333
0.21389111876487732 0.053370870649814606 0.01781383343040943
0.22067832946777344 0.0744204968214035 0.2650633156299591
0.3877541422843933 0.02491249516606331 0.5155690908432007
0.3411136269569397 0.117817223072052 0.028762901201844215
0.6613153219223022 0.02121908590197563 0.38478323817253113
0.3802168369293213 0.03887330740690231 0.036789942532777786
0.799949049949646 0.0037501517217606306 0.17752483487129211
0.6407994031906128 0.18247589468955994 0.07960548251867294
0.7845596075057983 0.2984764873981476 0.08755085617303848
0.8581333160400391 0.03056543692946434 0.12728175520896912
0.9288474321365356 0.2509058117866516 0.08002924174070358
0.27949202060699463 0.003750162199139595 0.0037501673214137554
0.7858806252479553 0.09979858249425888 0.16506056487560272
0.9681849479675293 0.030583521351218224 0.05339474231004715
0.6634811162948608 0.20966963469982147 0.07471763342618942
0.0037500362377613783 0.014090828597545624 0.21043117344379425
0.03956540673971176 0.003750136587768793 0.41311678290367126
0.24831047654151917 0.10400545597076416 0.17521077394485474
0.383929044008255 0.03596169501543045 0.34866422414779663
0.27423474192619324 0.0921197161078453 0.32881981134414673
0.3131060004234314 0.045049600303173065 0.522709846496582
0.20745687186717987 0.09246260672807693 0.22100749611854553
0.8499560356140137 0.0037500071339309216 0.0037500429898500443
0.16254118084907532 0.21348026394844055 0.030020061880350113
0.35386255383491516 0.09013237059116364 0.07321646809577942
0.25428444147109985 0.04562326893210411 0.18065901100635529
0.3072725236415863 0.01858442835509777 0.17615851759910583
0.7546427845954895 0.017507608979940414 0.1550547182559967
0.48492980003356934 0.10667039453983307 0.11809898912906647
0.6860167384147644 0.0037500206381082535 0.22622866928577423
0.22264042496681213 0.12932588160037994 0.052425749599933624
0.8495292663574219 0.04919181391596794 0.15990225970745087
0.6175981760025024 0.17749278247356415 0.04930690675973892
0.9417048692703247 0.16308271884918213 0.048451099544763565
0.9776341319084167 0.24880746006965637 0.004020919091999531
0.34833773970603943 0.10725420713424683 0.07557091116905212
0.7558619379997253 0.003750195726752281 0.3628600537776947
0.05184116214513779 0.06946711242198944 0.13400903344154358
0.40257352590560913 0.11775906383991241 0.21404704451560974
0.19637545943260193 0.13919784128665924 0.13584180176258087
0.7335379123687744 0.1571032702922821 0.06608199328184128
0.34512507915496826 0.003750201780349016 0.13248760998249054
0.2426002323627472 0.06873394548892975 0.43283766508102417
0.48086684942245483 0.09205952286720276 0.06581772863864899
0.0037501633632928133 0.034052472561597824 0.3487929701805115
0.557890772819519 0.025782417505979538 0.032482706010341644
0.2137337028980255 0.021701715886592865 0.07015673816204071
0.5842703580856323 0.0037500448524951935 0.5267001390457153
0.0037501356564462185 0.023246267810463905 0.5978583693504333
0.8407281637191772 0.0037501968909054995 0.5671860575675964
0.4242616295814514 0.02963826060295105 0.19816723465919495
0.2296075075864792 0.03807813674211502 0.04203599691390991
0.8571310043334961 0.01945606991648674 0.1616107076406479
0.772318959236145 0.06104413792490959 0.14227335155010223
0.8702969551086426 0.03301548957824707 0.01847241073846817
0.9419118762016296 0.13650013506412506 0.003750026924535632
0.855523407459259 0.20089486241340637 0.03401612117886543
0.6761094331741333 0.003750208066776395 0.29669663310050964
0.24646086990833282 0.33702558279037476 0.23158231377601624
0.25196027755737305 0.003750159638002515 0.4793711304664612
0.26912587881088257 0.032810281962156296 0.23442316055297852
0.8440186381340027 0.0037501719780266285 0.018200982362031937
0.770722508430481 0.0037500779144465923 0.44753336906433105
0.47806963324546814 0.0037501086480915546 0.140743225812912
0.30663567781448364 0.05467288941144943 0.18066321313381195
0.432079017162323 0.14128047227859497 0.14855875074863434
0.1447184830904007 0.032361336052417755 0.44648104906082153
0.7114153504371643 0.0037500597536563873 0.19135601818561554
0.6103261709213257 0.06432955712080002 0.2310398370027542
0.6003658771514893 0.0387873500585556 0.2851695716381073
0.559036135673523 0.016776781529188156 0.18789614737033844
0.8534063100814819 0.0037500530015677214 0.24091041088104248
0.9515295028686523 0.003750078845769167 0.1514185518026352
0.614028811454773 0.04903429374098778 0.13308408856391907
0.3641025125980377 0.05781857296824455 0.1743200570344925
0.8849391937255859 0.05850818753242493 0.06595326960086823
0.8397428393363953 0.022045938298106194 0.2181381732225418
0.9451929926872253 0.06542511284351349 0.14359953999519348
0.19602812826633453 0.11163141578435898 0.0640009343624115
0.003750122617930174 0.03541766107082367 0.28923356533050537
0.5329640507698059 0.09062503278255463 0.19924774765968323
0.32788407802581787 0.016751304268836975 0.584129810333252
0.10041824728250504 0.4425503611564636 0.009277709759771824
0.5256962776184082 0.0037501889746636152 0.07107441127300262
0.43990951776504517 0.15182480216026306 0.1997961848974228
0.4135783612728119 0.003750055329874158 0.023379424586892128
0.41296786069869995 0.003750026924535632 0.21456480026245117
0.7074543237686157 0.0037500609178096056 0.09333056956529617
0.5706391334533691 0.09587028622627258 0.15983030200004578
0.7499964833259583 0.11731376498937607 0.003750227391719818
0.5156213045120239 0.04901917651295662 0.14394862949848175
0.537941575050354 0.11368080228567123 0.003750221338123083
0.7155872583389282 0.07830052077770233 0.13824990391731262
0.38906800746917725 0.09786523878574371 0.21078109741210938
0.7508949041366577 0.0765734389424324 0.04975927621126175
0.9478330612182617 0.04737852141261101 0.1131804808974266
0.274005264043808 0.1558191031217575 0.02230360358953476
0.7437493801116943 0.18162529170513153 0.042113419622182846
0.9049206972122192 0.12789393961429596 0.09736482799053192
0.5479930639266968 0.0983276516199112 0.16629596054553986
0.4128348231315613 0.020706776529550552 0.44219809770584106
0.17636330425739288 0.1285306066274643 0.15459096431732178
0.232844740152359 0.03868433088064194 0.21882013976573944
0.26338639855384827 0.019347798079252243 0.4592878222465515
0.2585654854774475 0.43626612424850464 0.004003520589321852
0.4903835654258728 0.03984413668513298 0.09018747508525848
0.6332089304924011 0.061221618205308914 0.16501131653785706
0.5945117473602295 0.08892401307821274 0.22392933070659637
0.12109613418579102 0.04589439556002617 0.30104124546051025
0.31147322058677673 0.3512416481971741 0.1163925752043724
0.7689392566680908 0.003750171512365341 0.18626855313777924
0.7171577215194702 0.0037501200567930937 0.22605833411216736
0.11971505731344223 0.018436916172504425 0.23699244856834412
0.7409744262695312 0.0037500199396163225 0.31423527002334595
0.5848609805107117 0.23718729615211487 0.05004577711224556
0.6601904630661011 0.12007361650466919 0.12462395429611206
0.8388086557388306 0.03256172314286232 0.1379428207874298
0.8022359013557434 0.1662934422492981 0.037404634058475494
0.8115575909614563 0.11437958478927612 0.14690151810646057
0.5783161520957947 0.32710570096969604 0.09277231246232986
0.4841507077217102 0.023812096565961838 0.04126359522342682
0.622734785079956 0.020558467134833336 0.34057483077049255
0.2300555408000946 0.05103267356753349 0.3770774006843567
0.09429096430540085 0.03300001472234726 0.29488903284072876
0.43097710609436035 0.05530335381627083 0.24028976261615753
0.9365341067314148 0.003750199917703867 0.5063890814781189
0.35437116026878357 0.01685727760195732 0.5528391599655151
0.8295394778251648 0.12340094894170761 0.048546355217695236
0.2676653265953064 0.43816861510276794 0.04579668492078781
0.32290834188461304 0.014966519549489021 0.2215873897075653
0.703102707862854 0.17397335171699524 0.038177233189344406
0.21151301264762878 0.07875789701938629 0.2976493239402771
0.22087128460407257 0.06492676585912704 0.2179274559020996
0.8538241386413574 0.18899765610694885 0.20017525553703308
0.6610156297683716 0.07687237113714218 0.2425544261932373
0.3257371783256531 0.14159923791885376 0.0356258824467659
0.9180227518081665 0.03591186925768852 0.15332266688346863
0.8901611566543579 0.01716652698814869 0.15867312252521515
0.603962779045105 0.3005112409591675 0.004827868193387985
0.9340486526489258 0.0037500299513339996 0.30892306566238403
0.968115508556366 0.04129255563020706 0.32490047812461853
0.9800748825073242 0.03555307909846306 0.24247689545154572
0.24514813721179962 0.12041442096233368 0.23607981204986572
0.2755398154258728 0.17677071690559387 0.015787973999977112
0.6362744569778442 0.019467541947960854 0.2534446120262146
0.5976883172988892 0.020751118659973145 0.30666711926460266
0.10815397650003433 0.0037502117920666933 0.3604527413845062
0.3130730390548706 0.14501644670963287 0.10762655735015869
0.25565436482429504 0.07502206414937973 0.18939517438411713
0.5811863541603088 0.08336366713047028 0.023488426581025124
0.7342952489852905 0.1727718859910965 0.062050241976976395
0.5835596919059753 0.039871152490377426 0.15777729451656342
0.18197406828403473 0.011511965654790401 0.10777978599071503
0.5968037843704224 0.23637492954730988 0.026373231783509254
0.6920825242996216 0.023542221635580063 0.3028792142868042
0.4414249062538147 0.4435132145881653 0.006548336707055569
0.8310281038284302 0.09307704120874405 0.12367566674947739
0.8807090520858765 0.10709730535745621 0.06844737380743027
0.5954368710517883 0.0037500555627048016 0.5978585481643677
0.32979241013526917 0.029799800366163254 0.20200899243354797
0.9927530288696289 0.1837470829486847 0.28171682357788086
0.3081221580505371 0.023041967302560806 0.03289708495140076
0.763290524482727 0.03264588117599487 0.18268299102783203
0.4140775799751282 0.0467609241604805 0.24463489651679993
0.38249489665031433 0.09620814770460129 0.26344406604766846
0.447176456451416 0.017565559595823288 0.3787575960159302
0.0037501552142202854 0.0303083173930645 0.4124063551425934
0.3525000512599945 0.08937202394008636 0.22966203093528748
0.4737655520439148 0.0037502157501876354 0.44903334975242615
0.37215501070022583 0.4620334506034851 0.10346297174692154
0.432991087436676 0.20786353945732117 0.05518603324890137
0.42404136061668396 0.3197455406188965 0.0428619422018528
0.5139403343200684 0.13509027659893036 0.0037502297200262547
0.003750009462237358 0.0037501424085348845 0.035120103508234024
0.6985911130905151 0.15409322082996368 0.10612893104553223
0.6766229867935181 0.07597873359918594 0.2288573533296585
0.535638689994812 0.06413036584854126 0.08169414848089218
0.41030120849609375 0.1271224468946457 0.03431924432516098
0.2977852523326874 0.5051774978637695 0.021990004926919937
0.6659322381019592 0.04396706074476242 0.038965724408626556
0.9038151502609253 0.02475578524172306 0.388557493686676
0.8592343330383301 0.31628113985061646 0.010220113210380077
0.36339834332466125 0.07622459530830383 0.10648453235626221
0.8205572962760925 0.21552130579948425 0.009084939956665039
0.040017034858465195 0.055563412606716156 0.08389461785554886
0.4105619490146637 0.0037501086480915546 0.3432409465312958
0.6613494157791138 0.003750169649720192 0.5260474681854248
0.13838939368724823 0.07982020080089569 0.4066580832004547
0.0037500709295272827 0.1268652379512787 0.27963224053382874
0.2457539141178131 0.158786803483963 0.15742433071136475
0.5200155973434448 0.06088753417134285 0.19478213787078857
0.3549426198005676 0.12456804513931274 0.2109912633895874
0.4216644763946533 0.1841440498828888 0.09698548913002014
0.5676762461662292 0.06444987654685974 0.2113090306520462
0.6630980968475342 0.003750242292881012 0.17650334537029266
0.5759340524673462 0.018909074366092682 0.2863151431083679
0.5314014554023743 0.026488710194826126 0.06475581228733063
0.1617700308561325 0.16423346102237701 0.30427783727645874
0.6508324146270752 0.06559397280216217 0.30559369921684265
0.8260440826416016 0.0037502150516957045 0.4420680105686188
0.05605102702975273 0.2624030113220215 0.04206546023488045
0.243233323097229 0.030486956238746643 0.2683238387107849
0.46371132135391235 0.36249324679374695 0.01958465948700905
0.7927880883216858 0.25329816341400146 0.06724938750267029
0.855270266532898 0.04206187278032303 0.35110077261924744
0.46287432312965393 0.0180177204310894 0.2884613275527954
0.003750027623027563 0.05213000625371933 0.5442842245101929
0.4420015215873718 0.030035927891731262 0.5332625508308411
0.031283680349588394 0.04783697798848152 0.09737318009138107
